-18.153576 9.719158 -2.453378
-18.153990 9.728333 -2.458311
-18.153086 9.729457 -2.459628
-18.152632 9.739640 -2.463724
-18.153164 9.738990 -2.462096
-18.154194 9.747393 -2.465405
-18.153833 9.757283 -2.471601
-18.153728 9.758881 -2.473219
-18.152384 9.769208 -2.475718
-18.152660 9.768221 -2.475088
-18.153196 9.777115 -2.480085
-18.153360 9.776903 -2.475941
-18.152514 9.777938 -2.477288
-18.152351 9.787494 -2.479491
-18.153370 9.795644 -2.481691
-18.152777 9.805649 -2.479470
-18.153004 9.824119 -2.480191
-18.152847 9.833640 -2.480371
-18.152920 9.842788 -2.484793
-18.153444 9.842146 -2.483235
-18.152431 9.852469 -2.484558
-18.152637 9.858252 -2.487377
-18.153807 9.869150 -2.484317
-18.153576 9.887494 -2.487838
-18.152855 9.906217 -2.487995
-18.154003 9.913991 -2.489040
-18.153860 9.914180 -2.486987
-18.152727 9.933341 -2.486653
-18.153440 9.941359 -2.487634
-18.152462 9.951126 -2.489260
-18.151411 9.206342 -2.488686
-18.150656 9.208476 -2.487083
-18.150867 9.220059 -2.487443
-18.151754 9.265456 -2.487284
-18.151485 9.265824 -2.489468
-18.152060 9.288297 -2.487738
-18.150499 9.302365 -2.487569
-18.151787 9.311716 -2.487598
-18.152060 9.334295 -2.486819
-18.151031 9.335743 -2.488175
-18.151257 9.380193 -2.491234
-18.152052 9.389909 -2.489789
-18.152271 9.411925 -2.487845
-18.151869 9.434482 -2.488884
-18.151474 9.434998 -2.487334
-18.152214 9.444324 -2.487205
-18.151320 9.445568 -2.488769
-18.151936 9.477718 -2.491646
-18.151896 9.481470 -2.491401
-18.150743 9.499864 -2.488913
-18.151018 9.583563 -2.466386
-18.150942 9.603529 -2.456366
-18.151579 9.653280 -2.430261
-18.150595 9.664260 -2.425649
-18.150705 9.674077 -2.426081
-18.151901 9.679510 -2.433947
-18.151327 9.683326 -2.435363
-18.151608 9.691176 -2.441010
-18.150831 9.703321 -2.446269
-18.151693 9.711982 -2.451526
-18.152161 9.720914 -2.456388
-18.152107 9.731464 -2.460139
-18.151775 9.731095 -2.460724
-18.151070 9.741590 -2.464589
-18.150532 9.744303 -2.466728
-18.151222 9.751068 -2.469202
-18.151073 9.751274 -2.467026
-18.151821 9.759764 -2.474144
-18.152046 9.759502 -2.472280
-18.151142 9.769959 -2.477184
-18.150818 9.780056 -2.480050
-18.150953 9.789208 -2.480374
-18.150982 9.807843 -2.479974
-18.150625 9.817801 -2.479963
-18.152008 9.826300 -2.482137
-18.151646 9.835087 -2.481353
-18.150780 9.836173 -2.482690
-18.152048 9.862105 -2.484689
-18.151747 9.871597 -2.486639
-18.150646 9.872939 -2.483794
-18.151815 9.880594 -2.487051
-18.152229 9.889108 -2.488749
-18.152239 9.898069 -2.487085
-18.150612 9.901698 -2.488225
-18.151077 9.917444 -2.488683
-18.151625 9.934628 -2.489772
-18.151346 9.934952 -2.487590
-18.151876 9.943179 -2.488256
-18.151974 9.960694 -2.487882
-18.148542 9.211593 -2.487659
-18.150080 9.221203 -2.487944
-18.148516 9.223494 -2.488930
-18.149515 9.234159 -2.487341
-18.148792 9.246779 -2.486795
-18.149603 9.257203 -2.489949
-18.150129 9.256456 -2.488024
-18.149506 9.280738 -2.487674
-18.148685 9.293112 -2.487196
-18.149446 9.315065 -2.486751
-18.149748 9.326052 -2.487230
-18.150114 9.347977 -2.487723
-18.148954 9.356383 -2.491558
-18.150255 9.359147 -2.488022
-18.148956 9.360970 -2.489074
-18.149263 9.371660 -2.489417
-18.148830 9.394423 -2.489421
-18.148788 9.407508 -2.489972
-18.149618 9.415615 -2.487796
-18.149073 9.416354 -2.489672
-18.150299 9.425126 -2.488741
-18.149094 9.426786 -2.489852
-18.149315 9.457329 -2.489844
-18.148607 9.459062 -2.489334
-18.149132 9.469603 -2.491878
-18.150278 9.490479 -2.490495
-18.148693 9.502637 -2.489391
-18.149481 9.512822 -2.489950
-18.150330 9.521807 -2.488772
-18.149324 9.523198 -2.490080
-18.149084 9.555034 -2.479483
-18.150150 9.563490 -2.476432
-18.150269 9.640932 -2.440738
-18.149014 9.666332 -2.426518
-18.149639 9.675477 -2.427409
-18.150278 9.680501 -2.435352
-18.149954 9.685053 -2.438471
-18.149113 9.686114 -2.439881
-18.149534 9.685610 -2.436015
-18.148661 9.696426 -2.442081
-18.149185 9.695774 -2.440425
-18.149059 9.705546 -2.449141
-18.148441 9.716110 -2.455211
-18.148817 9.715622 -2.451360
-18.149345 9.724494 -2.458277
-18.150028 9.723646 -2.456850
-18.149176 9.734361 -2.460634
-18.149122 9.743986 -2.469237
-18.149197 9.743932 -2.465096
-18.149319 9.753440 -2.469740
-18.148495 9.754505 -2.471005
-18.150040 9.761976 -2.474802
-18.150368 9.771065 -2.475253
-18.150034 9.771490 -2.479017
-18.149998 9.771507 -2.477038
-18.149324 9.781894 -2.480939
-18.149450 9.791053 -2.482240
-18.148762 9.801305 -2.481926
-18.148567 9.801561 -2.479667
-18.149759 9.828072 -2.479600
-18.149359 9.837868 -2.485569
-18.149363 9.847075 -2.483841
-18.149298 9.856251 -2.484072
-18.150227 9.864289 -2.485231
-18.148914 9.874990 -2.486371
-18.148638 9.902348 -2.486091
-18.149254 9.910484 -2.486985
-18.148533 9.920445 -2.488479
-18.150055 9.927573 -2.486049
-18.148579 9.929298 -2.486778
-18.150303 9.945011 -2.488905
-18.149714 9.963315 -2.487926
-18.147549 9.233301 -2.489335
-18.147404 9.237252 -2.487936
-18.146984 9.249414 -2.487628
-18.147514 9.271601 -2.488326
-18.147442 9.283718 -2.488215
-18.146627 9.296129 -2.487830
-18.148397 9.316554 -2.488209
-18.146648 9.330478 -2.486846
-18.147358 9.340981 -2.487456
-18.147226 9.352077 -2.487466
-18.146540 9.364384 -2.489383
-18.147144 9.374642 -2.489853
-18.146490 9.386905 -2.489363
-18.148388 9.406464 -2.488882
-18.147205 9.429395 -2.489501
-18.147497 9.440511 -2.489691
-18.148211 9.439544 -2.487965
-18.146854 9.451708 -2.489446
-18.147804 9.471422 -2.488552
-18.146584 9.485033 -2.489328
-18.147919 9.493684 -2.490610
-18.147110 9.516051 -2.492296
-18.147526 9.535779 -2.486813
-18.148081 9.545828 -2.482932
-18.148172 9.617506 -2.447719
-18.147865 9.627870 -2.445788
-18.147469 9.628383 -2.443241
-18.147158 9.638925 -2.441156
-18.147242 9.668604 -2.427209
-18.147861 9.677749 -2.428061
-18.147493 9.682215 -2.436756
-18.146667 9.698988 -2.444648
-18.146856 9.698766 -2.442790
-18.148354 9.703252 -2.447152
-18.147926 9.707010 -2.445964
-18.148296 9.716266 -2.452983
-18.146683 9.727832 -2.460301
-18.147388 9.726955 -2.458808
-18.148167 9.733896 -2.461452
-18.147314 9.736696 -2.461216
-18.146967 9.746723 -2.465385
-18.148161 9.762317 -2.475872
-18.147985 9.764529 -2.475097
-18.146835 9.765952 -2.476212
-18.146799 9.775462 -2.478575
-18.148186 9.783294 -2.481963
-18.147013 9.809800 -2.481519
-18.147251 9.812420 -2.478989
-18.146736 9.813036 -2.480509
-18.147039 9.822187 -2.479005
-18.147831 9.830424 -2.484055
-18.146997 9.831417 -2.481381
-18.147549 9.830761 -2.479765
-18.147495 9.840116 -2.482100
-18.147877 9.848864 -2.484641
-18.146589 9.850434 -2.485596
-18.148134 9.857644 -2.485049
-18.147142 9.867998 -2.484694
-18.147070 9.878035 -2.488648
-18.148430 9.884644 -2.487266
-18.147921 9.894231 -2.489208
-18.148420 9.902589 -2.487953
-18.147072 9.931063 -2.487601
-18.146727 9.940365 -2.489553
-18.146631 9.940473 -2.487597
-18.148026 9.965250 -2.490522
-18.147606 9.965758 -2.488236
-18.146259 9.219469 -2.489216
-18.144566 9.229320 -2.487935
-18.145294 9.240341 -2.488520
-18.144825 9.251632 -2.490433
-18.146223 9.250509 -2.489261
-18.145897 9.262612 -2.489143
-18.146326 9.308319 -2.486416
-18.144539 9.310883 -2.487111
-18.146057 9.319905 -2.488537
-18.145344 9.332330 -2.488071
-18.146463 9.364226 -2.491100
-18.146338 9.375764 -2.491515
-18.145393 9.388431 -2.490875
-18.145102 9.399650 -2.488496
-18.145201 9.410914 -2.488380
-18.146152 9.420418 -2.489392
-18.145262 9.432085 -2.490118
-18.145985 9.452894 -2.490881
-18.146313 9.452456 -2.486671
-18.145737 9.463004 -2.489052
-18.145611 9.470915 -2.490504
-18.145262 9.474908 -2.490826
-18.146460 9.505657 -2.489766
-18.146240 9.517199 -2.489504
-18.145729 9.527993 -2.489316
-18.146025 9.537785 -2.487730
-18.145496 9.579799 -2.468581
-18.146404 9.579735 -2.467795
-18.145565 9.620913 -2.447710
-18.145935 9.652392 -2.435848
-18.146210 9.660226 -2.428158
-18.144892 9.669709 -2.427552
-18.144941 9.671558 -2.427451
-18.146423 9.679583 -2.429063
-18.145239 9.681079 -2.436513
-18.144676 9.681797 -2.431770
-18.146149 9.689881 -2.441717
-18.145098 9.691252 -2.438755
-18.144682 9.691794 -2.442661
-18.146044 9.694622 -2.443778
-18.144976 9.701115 -2.447444
-18.145800 9.700080 -2.446119
-18.145182 9.705206 -2.448512
-18.145834 9.709642 -2.448490
-18.144669 9.723240 -2.457760
-18.145254 9.729626 -2.461271
-18.144606 9.736089 -2.462867
-18.145115 9.739461 -2.463601
-18.145678 9.738746 -2.461836
-18.146124 9.747019 -2.469489
-18.145384 9.748707 -2.470288
-18.145212 9.748895 -2.468134
-18.146219 9.757342 -2.471352
-18.145712 9.757962 -2.472894
-18.145063 9.768151 -2.476834
-18.146042 9.773102 -2.478248
-18.144911 9.777846 -2.478925
-18.144949 9.796618 -2.480555
-18.146360 9.804252 -2.481969
-18.146166 9.823242 -2.480299
-18.145563 9.833136 -2.484318
-18.144766 9.843457 -2.483815
-18.145290 9.879322 -2.488389
-18.145166 9.879490 -2.485137
-18.146275 9.887214 -2.487501
-18.146082 9.896428 -2.485555
-18.146200 9.905221 -2.488022
-18.145632 9.914776 -2.486034
-18.144951 9.924675 -2.487506
-18.145412 9.933007 -2.488161
-18.145332 9.950787 -2.487749
-18.145876 9.958778 -2.486631
-18.144640 9.960208 -2.487609
-18.142656 9.211910 -2.489497
-18.143728 9.218717 -2.486112
-18.143238 9.219422 -2.487937
-18.143379 9.254669 -2.489247
-18.142942 9.278256 -2.486973
-18.143061 9.290072 -2.486748
-18.143995 9.322854 -2.489015
-18.143713 9.346175 -2.486626
-18.143763 9.356976 -2.489242
-18.144272 9.356269 -2.487439
-18.143360 9.368861 -2.491196
-18.143087 9.369272 -2.488648
-18.142626 9.381003 -2.490533
-18.142984 9.402587 -2.491216
-18.142979 9.402617 -2.488928
-18.143585 9.413159 -2.489357
-18.142954 9.424869 -2.488914
-18.142691 9.447169 -2.487747
-18.144379 9.448146 -2.491243
-18.143480 9.456339 -2.490990
-18.143824 9.465623 -2.489813
-18.143381 9.489403 -2.488889
-18.143999 9.498988 -2.489523
-18.143394 9.509812 -2.489383
-18.143860 9.520444 -2.491885
-18.144356 9.541501 -2.485769
-18.144156 9.652819 -2.432542
-18.144503 9.662420 -2.428802
-18.143534 9.673360 -2.428401
-18.144466 9.682047 -2.433877
-18.144464 9.682088 -2.429567
-18.143871 9.684453 -2.439545
-18.142630 9.685206 -2.441050
-18.142719 9.684308 -2.436649
-18.143824 9.687029 -2.437576
-18.143835 9.692863 -2.444082
-18.144032 9.695855 -2.445153
-18.143459 9.703038 -2.448430
-18.143267 9.703265 -2.450291
-18.144270 9.711621 -2.449359
-18.143728 9.722068 -2.455539
-18.143612 9.722188 -2.453224
-18.143005 9.722950 -2.459080
-18.143305 9.741713 -2.466222
-18.142914 9.742226 -2.463752
-18.142946 9.748973 -2.470888
-18.143173 9.751472 -2.470506
-18.142942 9.761401 -2.474735
-18.143467 9.760764 -2.473153
-18.142767 9.771035 -2.479103
-18.143614 9.769949 -2.477666
-18.144505 9.787853 -2.481048
-18.142681 9.799439 -2.482775
-18.143047 9.798957 -2.480963
-18.143650 9.816820 -2.480020
-18.144257 9.825569 -2.480800
-18.143051 9.827031 -2.481784
-18.143402 9.854272 -2.484975
-18.143740 9.862956 -2.483430
-18.142872 9.863989 -2.484742
-18.143215 9.872710 -2.485410
-18.143757 9.872073 -2.483850
-18.144140 9.889759 -2.487671
-18.143978 9.898912 -2.487853
-18.144297 9.907477 -2.488440
-18.143745 9.917002 -2.486387
-18.142857 9.918044 -2.487658
-18.143730 9.926106 -2.488487
-18.144484 9.934087 -2.489401
-18.143745 9.952634 -2.488429
-18.142279 9.209169 -2.488265
-18.141497 9.210356 -2.486361
-18.141636 9.221780 -2.487802
-18.141088 9.246522 -2.487230
-18.141926 9.268406 -2.488098
-18.141483 9.292344 -2.487840
-18.142237 9.302422 -2.486365
-18.141989 9.316172 -2.488790
-18.141138 9.315775 -2.486709
-18.141722 9.337511 -2.487270
-18.141890 9.348763 -2.487360
-18.142502 9.392496 -2.490556
-18.142246 9.415016 -2.489361
-18.141588 9.426756 -2.489001
-18.141645 9.448599 -2.489193
-18.141804 9.468393 -2.490223
-18.142567 9.478596 -2.490743
-18.142527 9.490555 -2.490360
-18.140671 9.513503 -2.489277
-18.140997 9.534376 -2.487497
-18.142054 9.574236 -2.471834
-18.141771 9.605585 -2.454784
-18.141384 9.636314 -2.442490
-18.140650 9.667397 -2.427867
-18.141760 9.675614 -2.431234
-18.141144 9.686319 -2.437359
-18.142361 9.694739 -2.444974
-18.142019 9.714482 -2.453775
-18.142382 9.714011 -2.449894
-18.141508 9.715105 -2.451277
-18.141104 9.725436 -2.459111
-18.141567 9.724798 -2.455741
-18.142097 9.733611 -2.460682
-18.141392 9.734484 -2.462163
-18.140730 9.744952 -2.468276
-18.140709 9.744975 -2.466109
-18.142281 9.752579 -2.471924
-18.141369 9.763361 -2.475578
-18.142252 9.781146 -2.478834
-18.140818 9.782898 -2.481785
-18.142118 9.790803 -2.481026
-18.140697 9.792552 -2.482895
-18.141762 9.809901 -2.482166
-18.142294 9.809261 -2.480590
-18.141827 9.819050 -2.480607
-18.142187 9.828120 -2.483110
-18.141035 9.838663 -2.482432
-18.141888 9.846950 -2.483360
-18.141693 9.865400 -2.485759
-18.142359 9.873727 -2.486695
-18.141006 9.893504 -2.487144
-18.141043 9.911344 -2.487707
-18.141321 9.946700 -2.490026
-18.141665 9.946291 -2.488308
-18.142532 9.962685 -2.489830
-18.141371 9.964019 -2.486862
-18.140585 9.235190 -2.487052
-18.138763 9.237860 -2.487778
-18.140034 9.248055 -2.488723
-18.139267 9.272280 -2.488247
-18.140585 9.281679 -2.487160
-18.139011 9.283929 -2.490477
-18.139166 9.305435 -2.488391
-18.139898 9.305792 -2.485601
-18.139639 9.317977 -2.487602
-18.139568 9.329210 -2.487600
-18.139534 9.352091 -2.489978
-18.139261 9.352502 -2.487508
-18.138994 9.363756 -2.487474
-18.139088 9.374917 -2.489835
-18.139297 9.397000 -2.490167
-18.139881 9.418312 -2.490634
-18.140491 9.438714 -2.488325
-18.138912 9.440894 -2.489197
-18.139172 9.462286 -2.489609
-18.140076 9.470757 -2.491068
-18.140335 9.481644 -2.491211
-18.139359 9.494876 -2.489794
-18.140589 9.503629 -2.488909
-18.139643 9.514883 -2.490577
-18.139122 9.536893 -2.488101
-18.139849 9.556824 -2.478114
-18.139404 9.567932 -2.473560
-18.139557 9.628787 -2.444873
-18.140587 9.672373 -2.428793
-18.140520 9.677194 -2.432343
-18.139956 9.677964 -2.427737
-18.140581 9.687025 -2.439148
-18.139175 9.688798 -2.442177
-18.139896 9.687888 -2.440605
-18.139729 9.698079 -2.446997
-18.139309 9.698638 -2.444559
-18.139864 9.707602 -2.449631
-18.140491 9.726129 -2.459074
-18.139610 9.736707 -2.464900
-18.139786 9.736503 -2.462985
-18.139431 9.739286 -2.465643
-18.138737 9.747433 -2.470705
-18.140411 9.754915 -2.472405
-18.139545 9.755988 -2.473736
-18.140343 9.767148 -2.476858
-18.139492 9.765698 -2.476019
-18.140476 9.773865 -2.481276
-18.140339 9.783515 -2.479192
-18.139820 9.803663 -2.480549
-18.139502 9.821923 -2.482727
-18.140368 9.820876 -2.481377
-18.140558 9.832687 -2.481713
-18.140314 9.848852 -2.484157
-18.138741 9.859924 -2.483036
-18.139271 9.877443 -2.486168
-18.138945 9.886950 -2.485003
-18.138853 9.896074 -2.487370
-18.139830 9.903860 -2.486374
-18.139503 9.904233 -2.488035
-18.138800 9.914002 -2.487834
-18.140287 9.921081 -2.487451
-18.140148 9.930334 -2.487507
-18.138733 9.940869 -2.486437
-18.139776 9.957280 -2.487023
-18.137524 9.216232 -2.486676
-18.138479 9.226444 -2.487381
-18.137148 9.252288 -2.488559
-18.137985 9.262555 -2.489293
-18.138237 9.262207 -2.487208
-18.137165 9.275338 -2.488748
-18.138285 9.278663 -2.491218
-18.137119 9.277573 -2.488759
-18.137657 9.285929 -2.487007
-18.138376 9.296843 -2.487532
-18.137087 9.298698 -2.488733
-18.138636 9.307656 -2.486804
-18.137331 9.309526 -2.488065
-18.137321 9.321283 -2.490185
-18.136765 9.322054 -2.487511
-18.138597 9.341976 -2.486977
-18.138475 9.364473 -2.489299
-18.136906 9.366693 -2.490190
-18.138304 9.376009 -2.491413
-18.138580 9.386712 -2.489553
-18.136749 9.389285 -2.490133
-18.138449 9.408952 -2.489621
-18.137983 9.420955 -2.490268
-18.136801 9.433433 -2.487108
-18.138340 9.436083 -2.490333
-18.137489 9.454352 -2.487849
-18.136799 9.455290 -2.489492
-18.137026 9.465235 -2.490024
-18.137720 9.473987 -2.491174
-18.137827 9.485076 -2.491202
-18.137747 9.517443 -2.491231
-18.138121 9.528159 -2.489144
-18.137136 9.590860 -2.463688
-18.137569 9.601285 -2.457459
-18.138468 9.619906 -2.448108
-18.137831 9.640925 -2.441838
-18.138466 9.660172 -2.430021
-18.137751 9.671138 -2.427499
-18.136894 9.674635 -2.433184
-18.137854 9.680625 -2.432331
-18.137009 9.681705 -2.437942
-18.136824 9.681966 -2.435693
-18.137569 9.690847 -2.442976
-18.137924 9.700377 -2.447665
-18.137775 9.699732 -2.446179
-18.137892 9.719712 -2.454590
-18.137400 9.720313 -2.452041
-18.137960 9.729329 -2.459119
-18.137419 9.729998 -2.460793
-18.136978 9.740052 -2.466873
-18.138227 9.738489 -2.465788
-18.138308 9.747997 -2.468366
-18.137608 9.768047 -2.476486
-18.138540 9.776261 -2.477610
-18.137146 9.795633 -2.480581
-18.137678 9.814930 -2.480832
-18.137726 9.833562 -2.483431
-18.138573 9.832494 -2.482159
-18.137251 9.843259 -2.483404
-18.138130 9.842200 -2.482096
-18.138447 9.851114 -2.484550
-18.137117 9.870914 -2.487052
-18.136736 9.871395 -2.484579
-18.138391 9.887598 -2.486584
-18.137369 9.897838 -2.488049
-18.137506 9.904682 -2.485700
-18.136911 9.916239 -2.488203
-18.137680 9.924166 -2.487355
-18.138613 9.932140 -2.488145
-18.137133 9.951596 -2.488519
-18.136299 9.205993 -2.486693
-18.136608 9.229201 -2.488261
-18.135098 9.243266 -2.486928
-18.135727 9.265020 -2.489653
-18.134859 9.267128 -2.489147
-18.135014 9.312867 -2.488389
-18.136194 9.334051 -2.487019
-18.134888 9.335912 -2.488240
-18.136549 9.344895 -2.487415
-18.135885 9.357290 -2.489151
-18.136154 9.379042 -2.491938
-18.135580 9.402205 -2.491549
-18.135590 9.402216 -2.489219
-18.136581 9.411558 -2.490316
-18.134804 9.425395 -2.489737
-18.135437 9.457160 -2.490602
-18.135201 9.477434 -2.492906
-18.134802 9.477998 -2.491054
-18.135633 9.499962 -2.489006
-18.135489 9.510555 -2.488979
-18.135338 9.510783 -2.486666
-18.135777 9.551588 -2.481188
-18.134844 9.634937 -2.443188
-18.136656 9.652586 -2.434644
-18.135788 9.673645 -2.430174
-18.135990 9.673403 -2.428317
-18.135193 9.675657 -2.436250
-18.135513 9.675517 -2.430048
-18.136292 9.682614 -2.439518
-18.136263 9.682662 -2.433141
-18.135069 9.684154 -2.442692
-18.135412 9.683731 -2.440895
-18.135925 9.689364 -2.443559
-18.136616 9.688913 -2.445115
-18.136683 9.691970 -2.444351
-18.135263 9.693827 -2.445346
-18.135822 9.703059 -2.448020
-18.134987 9.704114 -2.449396
-18.135769 9.711046 -2.450826
-18.135439 9.713261 -2.452243
-18.134979 9.713820 -2.449840
-18.135181 9.713580 -2.447951
-18.135330 9.722963 -2.454538
-18.135998 9.728591 -2.460271
-18.136253 9.731463 -2.461799
-18.136560 9.741032 -2.468601
-18.136099 9.741150 -2.468203
-18.135344 9.751705 -2.470104
-18.135450 9.761109 -2.474472
-18.136320 9.760031 -2.473132
-18.136709 9.769155 -2.477888
-18.135504 9.770651 -2.478913
-18.135229 9.770301 -2.478101
-18.136269 9.779114 -2.479794
-18.134808 9.780926 -2.480653
-18.136181 9.788667 -2.480907
-18.135109 9.789986 -2.482098
-18.135763 9.798626 -2.480889
-18.136648 9.806856 -2.479671
-18.134893 9.809013 -2.480294
-18.135658 9.817408 -2.481157
-18.135815 9.826448 -2.481605
-18.136480 9.862654 -2.483262
-18.134844 9.864630 -2.483793
-18.135714 9.881707 -2.488166
-18.135906 9.890577 -2.486518
-18.135540 9.900018 -2.488530
-18.135536 9.908966 -2.486779
-18.134987 9.918517 -2.488670
-18.136471 9.925588 -2.488280
-18.135241 9.927032 -2.489258
-18.136395 9.934753 -2.488241
-18.135859 9.944232 -2.489041
-18.136183 9.943823 -2.487397
-18.135769 9.961970 -2.485723
-18.133511 9.210141 -2.486739
-18.134644 9.220499 -2.486542
-18.133078 9.222811 -2.487553
-18.134247 9.232684 -2.488527
-18.134235 9.256564 -2.488502
-18.132874 9.292871 -2.487612
-18.134705 9.295873 -2.489355
-18.133728 9.303564 -2.487007
-18.132830 9.348944 -2.489410
-18.134176 9.348281 -2.487870
-18.134512 9.370087 -2.490500
-18.133804 9.393439 -2.489959
-18.134113 9.437168 -2.487163
-18.133352 9.438212 -2.488625
-18.134672 9.446782 -2.487847
-18.133436 9.448485 -2.489054
-18.134085 9.459018 -2.491681
-18.134708 9.468425 -2.490265
-18.133945 9.490367 -2.490132
-18.134134 9.501996 -2.489831
-18.134293 9.512169 -2.490141
-18.133562 9.534327 -2.487469
-18.133844 9.564876 -2.475237
-18.134422 9.574589 -2.471459
-18.134380 9.609287 -2.451955
-18.133837 9.616062 -2.450485
-18.133533 9.626391 -2.446302
-18.134716 9.644985 -2.441312
-18.133764 9.666271 -2.428267
-18.132832 9.671106 -2.432126
-18.133905 9.676000 -2.443508
-18.133423 9.676720 -2.440700
-18.134274 9.676209 -2.439168
-18.133392 9.676722 -2.436714
-18.134127 9.676341 -2.434525
-18.134062 9.675865 -2.430876
-18.134035 9.685500 -2.446045
-18.133280 9.686450 -2.443419
-18.134760 9.694457 -2.446934
-18.134525 9.711799 -2.452313
-18.133078 9.716244 -2.454591
-18.133326 9.715945 -2.452563
-18.133055 9.725811 -2.458933
-18.133579 9.725159 -2.457305
-18.133451 9.725342 -2.455035
-18.133881 9.734492 -2.464014
-18.133701 9.734690 -2.461906
-18.133173 9.743157 -2.466800
-18.133127 9.755052 -2.473357
-18.133522 9.753988 -2.470540
-18.134573 9.762196 -2.475832
-18.133259 9.773454 -2.479161
-18.134012 9.800831 -2.481412
-18.134705 9.809229 -2.482159
-18.133101 9.820534 -2.483067
-18.133642 9.829061 -2.481944
-18.134127 9.837919 -2.482433
-18.132925 9.838084 -2.482504
-18.134029 9.847185 -2.482732
-18.133505 9.857081 -2.482472
-18.132982 9.857746 -2.484052
-18.133528 9.866211 -2.484791
-18.134062 9.865886 -2.483066
-18.133400 9.875403 -2.485849
-18.134623 9.883044 -2.484243
-18.133739 9.893169 -2.486729
-18.133717 9.902191 -2.488993
-18.133146 9.936762 -2.489152
-18.133163 9.956258 -2.487165
-18.133802 9.964227 -2.489927
-18.133999 9.964014 -2.488145
-18.134550 9.963383 -2.486616
-18.130985 9.213893 -2.485774
-18.131502 9.225135 -2.488593
-18.131334 9.236989 -2.488414
-18.132725 9.246756 -2.487294
-18.132423 9.259213 -2.489174
-18.132057 9.271224 -2.488961
-18.132685 9.281881 -2.487170
-18.131346 9.283819 -2.488466
-18.132423 9.305439 -2.488256
-18.131338 9.329855 -2.487496
-18.131926 9.335013 -2.489847
-18.131792 9.340349 -2.487801
-18.132238 9.362489 -2.488323
-18.132689 9.372664 -2.491110
-18.131084 9.386229 -2.489858
-18.132141 9.407040 -2.490815
-18.132610 9.417130 -2.489072
-18.131317 9.430265 -2.489110
-18.132271 9.439702 -2.490040
-18.132580 9.449658 -2.490467
-18.130890 9.463435 -2.491279
-18.132572 9.471360 -2.490642
-18.132627 9.479073 -2.491179
-18.131432 9.482628 -2.490304
-18.131735 9.493390 -2.490528
-18.131594 9.505459 -2.489959
-18.131962 9.525253 -2.488526
-18.131144 9.526398 -2.489905
-18.130959 9.588988 -2.464640
-18.131107 9.639828 -2.442217
-18.131786 9.664547 -2.439335
-18.132584 9.667789 -2.429473
-18.132069 9.671424 -2.446675
-18.131350 9.677992 -2.443608
-18.131714 9.678862 -2.439669
-18.131674 9.678934 -2.437387
-18.132095 9.678376 -2.433548
-18.132023 9.678491 -2.431372
-18.131357 9.698822 -2.446275
-18.131439 9.703659 -2.448894
-18.132545 9.707229 -2.449555
-18.131411 9.708669 -2.450619
-18.131620 9.718091 -2.455373
-18.132519 9.726750 -2.463350
-18.131161 9.728210 -2.459472
-18.131578 9.731318 -2.463237
-18.132149 9.736657 -2.466756
-18.131683 9.737268 -2.464315
-18.131365 9.747116 -2.468321
-18.131870 9.746494 -2.466777
-18.132793 9.754913 -2.472062
-18.131336 9.756738 -2.472852
-18.132055 9.765350 -2.475677
-18.132128 9.784262 -2.480461
-18.132648 9.793039 -2.482074
-18.131277 9.804169 -2.481169
-18.131243 9.813531 -2.483326
-18.132511 9.821280 -2.480579
-18.131836 9.849854 -2.482839
-18.130951 9.869329 -2.484530
-18.132618 9.885431 -2.487654
-18.132248 9.894949 -2.487402
-18.131884 9.913217 -2.488687
-18.132812 9.912211 -2.486409
-18.131678 9.931256 -2.488130
-18.132530 9.939274 -2.488002
-18.131664 9.940326 -2.489260
-18.132107 9.948607 -2.487906
-18.131277 9.958445 -2.489486
-18.131603 9.958078 -2.487853
-18.129229 9.216496 -2.486570
-18.129559 9.251418 -2.486985
-18.130285 9.262345 -2.489852
-18.130489 9.296330 -2.487882
-18.129848 9.320281 -2.486261
-18.129353 9.321034 -2.488136
-18.130060 9.354171 -2.486533
-18.129902 9.365812 -2.488573
-18.129744 9.376846 -2.491040
-18.128986 9.377902 -2.492530
-18.130600 9.397958 -2.489524
-18.130177 9.420533 -2.488248
-18.129217 9.433188 -2.489440
-18.130596 9.474075 -2.491241
-18.129559 9.485195 -2.490923
-18.129206 9.496848 -2.490578
-18.129181 9.519134 -2.488137
-18.130335 9.538690 -2.486980
-18.130842 9.548077 -2.483342
-18.129013 9.581765 -2.469257
-18.129898 9.661358 -2.431357
-18.129772 9.665783 -2.440801
-18.129492 9.666058 -2.431377
-18.130676 9.670206 -2.444794
-18.129559 9.671650 -2.441862
-18.130442 9.670521 -2.440330
-18.130829 9.670025 -2.436455
-18.129950 9.671177 -2.431448
-18.129316 9.671972 -2.437414
-18.129082 9.672318 -2.432989
-18.128967 9.679457 -2.444907
-18.130669 9.680179 -2.442997
-18.129335 9.681915 -2.446103
-18.129242 9.682011 -2.443933
-18.130833 9.689621 -2.445584
-18.129448 9.691393 -2.446435
-18.129974 9.693031 -2.446262
-18.130833 9.699480 -2.447928
-18.129396 9.701311 -2.448895
-18.129284 9.711382 -2.451042
-18.129173 9.721206 -2.455484
-18.129976 9.729700 -2.460467
-18.129948 9.739437 -2.467065
-18.129099 9.740498 -2.468380
-18.129230 9.749785 -2.470741
-18.129208 9.749833 -2.468765
-18.130468 9.767332 -2.476593
-18.129963 9.767950 -2.478118
-18.130379 9.777052 -2.478707
-18.130177 9.796106 -2.482084
-18.130373 9.814582 -2.480613
-18.130117 9.824202 -2.482705
-18.129341 9.834343 -2.480233
-18.130543 9.842302 -2.481455
-18.128986 9.844196 -2.482185
-18.129610 9.852559 -2.483030
-18.129246 9.859890 -2.484762
-18.129761 9.861660 -2.483336
-18.129656 9.879926 -2.484724
-18.128929 9.889871 -2.486488
-18.130409 9.897145 -2.487866
-18.129969 9.906673 -2.487840
-18.129860 9.915728 -2.485949
-18.129513 9.916125 -2.487662
-18.130733 9.923577 -2.487027
-18.129169 9.925426 -2.487716
-18.130417 9.932738 -2.489196
-18.129156 9.952103 -2.489400
-18.129875 9.951227 -2.488017
-18.127375 9.242848 -2.487327
-18.127481 9.246072 -2.489474
-18.127993 9.253713 -2.487966
-18.128458 9.276494 -2.488223
-18.128727 9.287634 -2.488455
-18.128550 9.311057 -2.487259
-18.128761 9.333556 -2.487564
-18.127501 9.335414 -2.488739
-18.127575 9.346352 -2.486696
-18.126961 9.358578 -2.488414
-18.127428 9.357872 -2.486666
-18.127804 9.368794 -2.489128
-18.127453 9.387929 -2.492473
-18.128696 9.389605 -2.490054
-18.127405 9.402463 -2.489049
-18.128160 9.412641 -2.489656
-18.128851 9.422379 -2.489374
-18.128551 9.444882 -2.489049
-18.127228 9.446712 -2.490145
-18.128136 9.455831 -2.489054
-18.127333 9.488248 -2.491302
-18.127541 9.531286 -2.489186
-18.127398 9.562821 -2.476471
-18.128145 9.572467 -2.472688
-18.128584 9.613190 -2.452108
-18.128065 9.623626 -2.447845
-18.128826 9.632577 -2.444439
-18.128788 9.652731 -2.438534
-18.127476 9.654429 -2.439745
-18.128166 9.663564 -2.442573
-18.126965 9.665140 -2.437375
-18.128466 9.666579 -2.443723
-18.127628 9.667161 -2.437461
-18.127396 9.667327 -2.434437
-18.128250 9.666813 -2.432895
-18.127890 9.673814 -2.444654
-18.128202 9.673469 -2.427978
-18.127611 9.684133 -2.446780
-18.128178 9.693015 -2.447627
-18.127499 9.693875 -2.449068
-18.127258 9.704047 -2.449223
-18.128176 9.712833 -2.452087
-18.127420 9.716202 -2.454960
-18.127783 9.722947 -2.458552
-18.128012 9.722674 -2.456592
-18.128389 9.731707 -2.461386
-18.128397 9.733277 -2.464701
-18.127571 9.732780 -2.462653
-18.128902 9.759796 -2.472966
-18.128822 9.779035 -2.479549
-18.127293 9.780938 -2.480239
-18.127369 9.790183 -2.480622
-18.127947 9.789432 -2.480011
-18.127739 9.799130 -2.481988
-18.128258 9.807908 -2.480653
-18.128099 9.817364 -2.482761
-18.127340 9.836816 -2.482579
-18.127836 9.836179 -2.481063
-18.127542 9.864348 -2.483475
-18.127300 9.873752 -2.484578
-18.128784 9.880964 -2.486037
-18.127836 9.909216 -2.487996
-18.128292 9.926454 -2.488944
-18.127089 9.945694 -2.487334
-18.126945 9.208154 -2.484589
-18.125698 9.221752 -2.485917
-18.126499 9.232566 -2.486707
-18.126692 9.255616 -2.489166
-18.126099 9.268499 -2.488480
-18.126656 9.279120 -2.489016
-18.126745 9.301754 -2.488279
-18.126759 9.301758 -2.485841
-18.125723 9.315149 -2.487082
-18.126572 9.347829 -2.488063
-18.125536 9.382805 -2.491916
-18.125755 9.393765 -2.489848
-18.126604 9.403578 -2.489503
-18.126375 9.409226 -2.491970
-18.126270 9.415290 -2.489289
-18.125410 9.427179 -2.490884
-18.126190 9.426101 -2.489346
-18.125463 9.438435 -2.488587
-18.126396 9.458233 -2.489708
-18.126753 9.469162 -2.489859
-18.125814 9.472120 -2.491489
-18.125202 9.471293 -2.490897
-18.126488 9.479747 -2.489933
-18.125343 9.502142 -2.489485
-18.126581 9.512257 -2.487804
-18.125526 9.513685 -2.489238
-18.126825 9.522333 -2.488223
-18.125275 9.545536 -2.484862
-18.125751 9.554895 -2.481228
-18.126451 9.635688 -2.444605
-18.126810 9.645430 -2.440715
-18.125454 9.656407 -2.442228
-18.125874 9.656488 -2.442639
-18.126045 9.656283 -2.440579
-18.126419 9.665805 -2.445400
-18.126785 9.665355 -2.439336
-18.126442 9.665812 -2.434846
-18.126650 9.665581 -2.430709
-18.125916 9.666483 -2.442865
-18.125425 9.667160 -2.431873
-18.125143 9.676967 -2.445136
-18.125893 9.686344 -2.447440
-18.125847 9.715786 -2.454379
-18.126036 9.715564 -2.452550
-18.126314 9.724808 -2.459361
-18.125669 9.735188 -2.463206
-18.126925 9.743247 -2.468608
-18.126040 9.753794 -2.472283
-18.126753 9.752910 -2.470797
-18.126093 9.759401 -2.474351
-18.126694 9.762568 -2.473117
-18.125055 9.764624 -2.475933
-18.125603 9.763929 -2.474244
-18.125389 9.773693 -2.476403
-18.125788 9.785646 -2.480066
-18.125359 9.792682 -2.481952
-18.126797 9.809754 -2.481501
-18.126205 9.819741 -2.483205
-18.126270 9.828922 -2.483480
-18.126642 9.828479 -2.481680
-18.126081 9.847746 -2.481766
-18.126034 9.856922 -2.482137
-18.125523 9.857529 -2.483618
-18.126320 9.874482 -2.487275
-18.125088 9.876426 -2.484660
-18.126001 9.884321 -2.485713
-18.125174 9.891523 -2.488747
-18.126175 9.893184 -2.486168
-18.126314 9.902061 -2.486409
-18.126093 9.902312 -2.488233
-18.125538 9.902963 -2.489811
-18.126362 9.919882 -2.487031
-18.126179 9.937764 -2.487483
-18.126514 9.946356 -2.488935
-18.125080 9.956904 -2.487863
-18.126698 9.963825 -2.487635
-18.124081 9.212431 -2.485662
-18.124409 9.223659 -2.487282
-18.123409 9.225128 -2.488696
-18.123896 9.236423 -2.486745
-18.124989 9.246369 -2.487681
-18.124704 9.264426 -2.490646
-18.123999 9.271573 -2.489010
-18.124739 9.293455 -2.487465
-18.123194 9.295698 -2.488315
-18.124384 9.305181 -2.488463
-18.124165 9.317392 -2.488086
-18.123137 9.329950 -2.487483
-18.123922 9.328832 -2.485809
-18.124361 9.362289 -2.488523
-18.124681 9.373241 -2.488721
-18.123362 9.375107 -2.489943
-18.123976 9.385010 -2.492758
-18.123446 9.408035 -2.490080
-18.123468 9.423487 -2.491432
-18.124336 9.433615 -2.490923
-18.123619 9.441000 -2.489183
-18.124557 9.450425 -2.490134
-18.124088 9.461431 -2.490046
-18.123049 9.474264 -2.491171
-18.124727 9.482163 -2.490556
-18.123440 9.493601 -2.490176
-18.123198 9.516857 -2.489347
-18.123652 9.567854 -2.475370
-18.124798 9.627928 -2.447177
-18.124613 9.640961 -2.443026
-18.123602 9.649625 -2.440335
-18.123453 9.657636 -2.443456
-18.123711 9.659328 -2.442852
-18.124544 9.668263 -2.445912
-18.124910 9.677651 -2.446410
-18.124769 9.677853 -2.444283
-18.123245 9.708742 -2.449925
-18.124039 9.708178 -2.448694
-18.123182 9.709244 -2.452089
-18.123182 9.719171 -2.456472
-18.124207 9.727490 -2.459662
-18.124447 9.735713 -2.466024
-18.124813 9.736263 -2.464518
-18.123247 9.738244 -2.465365
-18.123734 9.747287 -2.468083
-18.123388 9.757118 -2.474219
-18.123541 9.776004 -2.476807
-18.123697 9.785388 -2.479259
-18.123907 9.794481 -2.482770
-18.123550 9.813753 -2.482824
-18.124365 9.812715 -2.481539
-18.124247 9.813291 -2.481114
-18.124565 9.840219 -2.482361
-18.123289 9.860244 -2.483830
-18.124638 9.867831 -2.483032
-18.123487 9.869216 -2.485112
-18.123224 9.878674 -2.485131
-18.123219 9.887679 -2.485389
-18.124710 9.912954 -2.487438
-18.123636 9.923126 -2.486654
-18.123344 9.941119 -2.488023
-18.124676 9.959004 -2.488879
-18.122757 9.214392 -2.485755
-18.121742 9.215892 -2.487133
-18.121790 9.239539 -2.487344
-18.121576 9.251389 -2.489396
-18.121286 9.251843 -2.486843
-18.122995 9.261067 -2.488419
-18.121700 9.262960 -2.489590
-18.121513 9.286660 -2.486966
-18.121725 9.309040 -2.488521
-18.122881 9.319239 -2.489255
-18.122034 9.343240 -2.486482
-18.122164 9.354159 -2.486569
-18.122036 9.365606 -2.488793
-18.121288 9.378052 -2.490398
-18.122828 9.397906 -2.489591
-18.121759 9.399404 -2.489813
-18.121817 9.410320 -2.489930
-18.122545 9.420475 -2.488302
-18.122480 9.431282 -2.490635
-18.122183 9.464068 -2.490517
-18.121119 9.487140 -2.489834
-18.122988 9.505363 -2.489656
-18.121368 9.519396 -2.489956
-18.122049 9.528816 -2.488604
-18.122396 9.528335 -2.486712
-18.121103 9.539983 -2.485817
-18.123001 9.579362 -2.470510
-18.121342 9.601815 -2.458891
-18.122217 9.610656 -2.453453
-18.121159 9.622970 -2.447996
-18.121578 9.672085 -2.445677
-18.122118 9.681266 -2.446283
-18.122360 9.683558 -2.445991
-18.121462 9.692071 -2.445910
-18.122362 9.700497 -2.446949
-18.122812 9.709740 -2.449705
-18.122158 9.720505 -2.453448
-18.122524 9.729653 -2.462444
-18.122076 9.730199 -2.460026
-18.122030 9.739777 -2.466456
-18.122223 9.749192 -2.468849
-18.122700 9.758011 -2.471548
-18.123030 9.767168 -2.476259
-18.121185 9.769481 -2.476756
-18.122307 9.777540 -2.477942
-18.122152 9.787356 -2.480061
-18.122763 9.833238 -2.482547
-18.122784 9.842398 -2.482807
-18.122625 9.851955 -2.482949
-18.122852 9.851695 -2.481020
-18.121195 9.890097 -2.487623
-18.122377 9.888681 -2.486611
-18.121861 9.898381 -2.484450
-18.121393 9.916903 -2.488590
-18.122301 9.924707 -2.487486
-18.122196 9.930905 -2.488662
-18.123001 9.932752 -2.486502
-18.121202 9.934883 -2.487860
-18.122967 9.950546 -2.487851
-18.122637 9.959734 -2.487827
-18.119808 9.206795 -2.486658
-18.119276 9.207574 -2.487423
-18.119972 9.242224 -2.488071
-18.120308 9.276995 -2.488205
-18.120234 9.288519 -2.488164
-18.119715 9.300773 -2.486645
-18.119892 9.311697 -2.489180
-18.119253 9.324495 -2.488503
-18.120586 9.333627 -2.487485
-18.120010 9.346178 -2.489227
-18.120611 9.356375 -2.487508
-18.119196 9.369664 -2.488614
-18.119736 9.380253 -2.491300
-18.120518 9.389922 -2.492162
-18.119978 9.412904 -2.490525
-18.120701 9.423115 -2.489031
-18.119551 9.435387 -2.490386
-18.120693 9.445085 -2.488917
-18.119755 9.457121 -2.488274
-18.120241 9.463347 -2.491161
-18.120081 9.488556 -2.491049
-18.119703 9.498720 -2.491362
-18.120052 9.498258 -2.489485
-18.120117 9.509292 -2.489445
-18.119884 9.541623 -2.487036
-18.120697 9.551678 -2.483165
-18.119562 9.594409 -2.463368
-18.120674 9.643236 -2.442023
-18.120369 9.653839 -2.443899
-18.120646 9.653492 -2.439912
-18.119720 9.654687 -2.441360
-18.120251 9.663800 -2.446427
-18.120909 9.662954 -2.442781
-18.119860 9.664333 -2.443927
-18.119904 9.671901 -2.444607
-18.119707 9.674509 -2.446130
-18.119696 9.684400 -2.446263
-18.119223 9.694938 -2.448210
-18.119892 9.703650 -2.449092
-18.119537 9.704129 -2.446693
-18.120152 9.713112 -2.453790
-18.119963 9.713375 -2.451552
-18.120779 9.720317 -2.455996
-18.119923 9.720829 -2.457508
-18.120461 9.722648 -2.456251
-18.120735 9.731926 -2.462997
-18.119837 9.742558 -2.466574
-18.119806 9.751426 -2.470677
-18.119511 9.752605 -2.470711
-18.119717 9.752361 -2.468795
-18.120050 9.761362 -2.475586
-18.119904 9.761520 -2.473241
-18.119183 9.781460 -2.478327
-18.120308 9.789608 -2.481635
-18.121040 9.807433 -2.482530
-18.121044 9.807420 -2.478453
-18.119818 9.808934 -2.479430
-18.119240 9.819052 -2.481327
-18.120661 9.826535 -2.482554
-18.120680 9.826529 -2.480547
-18.120737 9.835724 -2.482877
-18.120024 9.845779 -2.482535
-18.120226 9.854912 -2.484922
-18.119415 9.855879 -2.482142
-18.120104 9.864127 -2.483044
-18.119587 9.873960 -2.483845
-18.119680 9.882967 -2.484150
-18.120979 9.899427 -2.485791
-18.120140 9.900424 -2.487014
-18.120918 9.905761 -2.489448
-18.120644 9.917777 -2.485948
-18.119686 9.927820 -2.488274
-18.120743 9.944196 -2.487898
-18.119740 9.954357 -2.487095
-18.119465 9.963466 -2.487162
-18.118307 9.221021 -2.486675
-18.118418 9.227359 -2.489504
-18.118120 9.233015 -2.486538
-18.118103 9.256526 -2.488928
-18.118734 9.279292 -2.489187
-18.117413 9.292643 -2.488039
-18.117870 9.303451 -2.487382
-18.118999 9.310252 -2.486121
-18.118229 9.337027 -2.487944
-18.118429 9.348428 -2.485651
-18.118546 9.359327 -2.487974
-18.118149 9.382137 -2.492349
-18.117647 9.383220 -2.491804
-18.118559 9.403932 -2.489341
-18.117811 9.427173 -2.488679
-18.117716 9.437950 -2.490958
-18.119070 9.447340 -2.489899
-18.118721 9.458523 -2.491788
-18.118702 9.458573 -2.489584
-18.118093 9.469746 -2.489390
-18.118887 9.480025 -2.489828
-18.118280 9.491026 -2.491800
-18.118479 9.533655 -2.489901
-18.118664 9.533422 -2.487889
-18.118248 9.564858 -2.473752
-18.117567 9.575993 -2.472495
-18.117861 9.586254 -2.468325
-18.118401 9.636370 -2.444142
-18.118149 9.635187 -2.444541
-18.118641 9.645899 -2.442451
-18.117302 9.647693 -2.443437
-18.117733 9.657284 -2.443970
-18.117863 9.666908 -2.446564
-18.117947 9.696613 -2.445075
-18.117245 9.701275 -2.448435
-18.117668 9.716292 -2.453772
-18.117849 9.725963 -2.458163
-18.118038 9.725741 -2.456343
-18.118608 9.734629 -2.463343
-18.117767 9.735688 -2.464695
-18.118248 9.744567 -2.467484
-18.117598 9.764407 -2.475479
-18.118404 9.772977 -2.476454
-18.118303 9.782549 -2.479678
-18.118771 9.800847 -2.480468
-18.117476 9.808109 -2.480913
-18.118067 9.829735 -2.482388
-18.117374 9.830619 -2.483834
-18.117250 9.849134 -2.482240
-18.118525 9.866041 -2.483862
-18.118010 9.884982 -2.484767
-18.118546 9.911371 -2.485871
-18.118322 9.920574 -2.487868
-18.119087 9.937373 -2.490086
-18.118601 9.937928 -2.487690
-18.118839 9.946443 -2.488284
-18.118591 9.964522 -2.488284
-18.116388 9.211899 -2.487299
-18.116234 9.224110 -2.487175
-18.116346 9.235622 -2.489688
-18.116865 9.234868 -2.487756
-18.116550 9.239513 -2.491535
-18.116806 9.246919 -2.487784
-18.116457 9.270699 -2.487347
-18.116116 9.294527 -2.488124
-18.117184 9.306988 -2.489707
-18.116959 9.315959 -2.489040
-18.115385 9.318234 -2.489944
-18.116697 9.328194 -2.488498
-18.116695 9.331882 -2.488702
-18.115686 9.340694 -2.487917
-18.115341 9.352850 -2.487538
-18.116198 9.362691 -2.488310
-18.117107 9.372640 -2.489176
-18.116447 9.376954 -2.492363
-18.115507 9.397047 -2.490066
-18.116766 9.417436 -2.490106
-18.116205 9.429422 -2.489639
-18.115435 9.430489 -2.491146
-18.115829 9.440584 -2.491703
-18.116169 9.451391 -2.489544
-18.116049 9.462240 -2.491777
-18.116362 9.472140 -2.490014
-18.117027 9.482588 -2.490509
-18.116425 9.514354 -2.488484
-18.116817 9.525563 -2.488346
-18.116146 9.567872 -2.475257
-18.116838 9.628683 -2.446679
-18.116592 9.678557 -2.445724
-18.115982 9.699121 -2.447692
-18.116022 9.708617 -2.450018
-18.115284 9.709591 -2.447422
-18.115372 9.713625 -2.452332
-18.116789 9.717455 -2.455181
-18.115316 9.729208 -2.462375
-18.115709 9.728693 -2.458611
-18.116884 9.746318 -2.470411
-18.116056 9.747346 -2.467594
-18.117146 9.755623 -2.472857
-18.115654 9.757502 -2.473554
-18.116013 9.757035 -2.469829
-18.115240 9.767379 -2.476525
-18.115959 9.765674 -2.475282
-18.115990 9.776012 -2.476500
-18.115431 9.786151 -2.479288
-18.116083 9.804194 -2.480290
-18.115759 9.813963 -2.480140
-18.116251 9.822753 -2.480709
-18.116581 9.828620 -2.482686
-18.117046 9.840269 -2.481783
-18.116739 9.849790 -2.483792
-18.116713 9.877449 -2.483365
-18.115479 9.878939 -2.484423
-18.117092 9.886080 -2.486003
-18.116182 9.896157 -2.485378
-18.115320 9.897185 -2.486657
-18.117065 9.904124 -2.486434
-18.115257 9.906291 -2.486910
-18.116381 9.913962 -2.486067
-18.115507 9.923938 -2.487599
-18.115738 9.932511 -2.486924
-18.116962 9.948659 -2.488595
-18.116526 9.958152 -2.486299
-18.114550 9.214642 -2.488104
-18.115004 9.249580 -2.488446
-18.113918 9.262696 -2.489860
-18.113632 9.263144 -2.487297
-18.114273 9.285829 -2.488793
-18.114264 9.285867 -2.487661
-18.113806 9.297901 -2.488448
-18.114470 9.308391 -2.489007
-18.114456 9.308433 -2.486682
-18.113302 9.333112 -2.488059
-18.113497 9.377805 -2.488314
-18.113747 9.388784 -2.490716
-18.113670 9.399646 -2.490714
-18.115093 9.408840 -2.488635
-18.113501 9.411083 -2.489530
-18.113869 9.421521 -2.489749
-18.114826 9.453252 -2.490703
-18.114197 9.464809 -2.492384
-18.114250 9.475061 -2.490421
-18.113861 9.486966 -2.489999
-18.114378 9.496411 -2.490542
-18.115076 9.516189 -2.489482
-18.114138 9.529217 -2.488231
-18.115177 9.599023 -2.459231
-18.114491 9.620876 -2.449168
-18.113909 9.642291 -2.442431
-18.113674 9.642582 -2.444440
-18.115105 9.650571 -2.443704
-18.113783 9.650576 -2.441768
-18.114590 9.661394 -2.443369
-18.113863 9.662329 -2.444939
-18.114531 9.681228 -2.446090
-18.114634 9.690938 -2.444296
-18.113609 9.692262 -2.447586
-18.114046 9.711153 -2.450604
-18.114662 9.720176 -2.455457
-18.113415 9.721765 -2.456525
-18.115210 9.729316 -2.460158
-18.114491 9.739847 -2.466099
-18.114065 9.740410 -2.463687
-18.114323 9.749522 -2.470262
-18.115101 9.754332 -2.471781
-18.114286 9.768617 -2.476753
-18.114517 9.777854 -2.477315
-18.114395 9.797016 -2.478574
-18.114693 9.815274 -2.481297
-18.113836 9.825739 -2.480758
-18.115223 9.842505 -2.482217
-18.113361 9.844788 -2.482765
-18.114948 9.861329 -2.482451
-18.114403 9.871072 -2.483297
-18.113516 9.899358 -2.487082
-18.113760 9.908084 -2.487669
-18.115211 9.915353 -2.487004
-18.113789 9.943635 -2.487596
-18.114962 9.959989 -2.486998
-18.112537 9.205969 -2.486348
-18.111519 9.207460 -2.490178
-18.112186 9.218178 -2.488444
-18.113089 9.228805 -2.486836
-18.111727 9.241475 -2.490043
-18.111822 9.254300 -2.488217
-18.113281 9.275378 -2.487065
-18.112263 9.276864 -2.488412
-18.111464 9.278024 -2.488936
-18.111708 9.322859 -2.489538
-18.113194 9.346879 -2.490032
-18.112070 9.345918 -2.487169
-18.112516 9.356911 -2.487340
-18.112221 9.361991 -2.489564
-18.111778 9.369014 -2.489123
-18.111530 9.369341 -2.486495
-18.112728 9.378886 -2.489881
-18.111689 9.380358 -2.491278
-18.111691 9.391683 -2.493365
-18.111383 9.398079 -2.492976
-18.112253 9.434961 -2.490654
-18.111668 9.441596 -2.491686
-18.111397 9.458044 -2.489867
-18.112637 9.477291 -2.491393
-18.113010 9.488126 -2.491465
-18.111851 9.499890 -2.490713
-18.112049 9.509224 -2.491486
-18.112583 9.508508 -2.489705
-18.112938 9.508041 -2.487819
-18.112785 9.531050 -2.489247
-18.111378 9.543311 -2.486008
-18.112803 9.551249 -2.483069
-18.112244 9.573083 -2.474100
-18.111467 9.614938 -2.452663
-18.111689 9.655006 -2.443050
-18.112970 9.664163 -2.444291
-18.112726 9.673598 -2.446484
-18.112318 9.674152 -2.444041
-18.112627 9.683696 -2.446646
-18.111803 9.694594 -2.448174
-18.111889 9.694490 -2.444009
-18.113089 9.702856 -2.447274
-18.111591 9.714288 -2.452687
-18.112133 9.713607 -2.450991
-18.112200 9.715582 -2.453696
-18.111633 9.724022 -2.459246
-18.112556 9.722853 -2.457786
-18.112812 9.725236 -2.460244
-18.112913 9.732275 -2.462392
-18.111423 9.734170 -2.463293
-18.112041 9.742963 -2.466189
-18.111588 9.753022 -2.472094
-18.112774 9.761148 -2.473355
-18.111887 9.771641 -2.477921
-18.112043 9.780963 -2.478269
-18.112545 9.789769 -2.478936
-18.111816 9.800239 -2.478511
-18.112816 9.808267 -2.479499
-18.111767 9.828296 -2.480964
-18.112732 9.854711 -2.482401
-18.111776 9.865206 -2.482806
-18.111849 9.874180 -2.483176
-18.113277 9.881605 -2.484501
-18.113201 9.890795 -2.484621
-18.112312 9.900798 -2.488147
-18.111452 9.919864 -2.485771
-18.112814 9.935994 -2.486372
-18.112686 9.953730 -2.486984
-18.111477 9.955151 -2.487892
-18.110003 9.205150 -2.489634
-18.109701 9.210229 -2.486153
-18.110725 9.232327 -2.487201
-18.111317 9.243098 -2.489998
-18.111319 9.243118 -2.487698
-18.110023 9.256957 -2.488865
-18.111086 9.290509 -2.488527
-18.110998 9.302006 -2.488273
-18.111305 9.313003 -2.488578
-18.110603 9.325198 -2.488132
-18.110989 9.336458 -2.488327
-18.110035 9.348848 -2.487600
-18.110180 9.360269 -2.487687
-18.110516 9.370813 -2.490165
-18.111139 9.392494 -2.490763
-18.110498 9.404129 -2.491396
-18.111263 9.403060 -2.489888
-18.109863 9.427156 -2.490913
-18.110655 9.426056 -2.489334
-18.111189 9.431227 -2.492117
-18.111195 9.436435 -2.492007
-18.111057 9.447280 -2.489749
-18.110720 9.453496 -2.491722
-18.110043 9.459923 -2.491066
-18.110842 9.491118 -2.491781
-18.110027 9.523096 -2.489535
-18.110355 9.522664 -2.487747
-18.111115 9.564667 -2.477166
-18.110891 9.574944 -2.475143
-18.111231 9.584520 -2.469177
-18.111078 9.605706 -2.458482
-18.111036 9.625454 -2.448395
-18.110155 9.637510 -2.445350
-18.110701 9.636809 -2.443588
-18.110619 9.652534 -2.443144
-18.110485 9.666749 -2.444330
-18.110733 9.686149 -2.447163
-18.111048 9.705486 -2.447749
-18.109390 9.707597 -2.450582
-18.110388 9.715873 -2.453724
-18.110577 9.725365 -2.460418
-18.110025 9.726950 -2.461626
-18.109758 9.736272 -2.465964
-18.109730 9.745885 -2.468330
-18.109715 9.755385 -2.468528
-18.109419 9.765380 -2.474593
-18.110697 9.792078 -2.479325
-18.109812 9.793176 -2.480690
-18.110617 9.801726 -2.479497
-18.109901 9.811880 -2.481157
-18.110746 9.810840 -2.479816
-18.110149 9.820926 -2.479438
-18.109446 9.822439 -2.481729
-18.110586 9.829745 -2.482080
-18.110954 9.838498 -2.482495
-18.110815 9.838689 -2.480309
-18.109884 9.849049 -2.483828
-18.110073 9.848834 -2.481882
-18.110287 9.857660 -2.482330
-18.110918 9.866244 -2.484030
-18.110973 9.875234 -2.484454
-18.111061 9.884293 -2.484628
-18.109537 9.886134 -2.485259
-18.111326 9.893059 -2.485120
-18.110189 9.903356 -2.488292
-18.110001 9.930474 -2.487829
-18.110649 9.938568 -2.486607
-18.109934 9.939428 -2.487910
-18.110901 9.947065 -2.487047
-18.109922 9.956984 -2.488531
-18.111095 9.964557 -2.485578
-18.107861 9.236604 -2.487026
-18.108185 9.259675 -2.489661
-18.108887 9.270148 -2.487883
-18.108877 9.281829 -2.490077
-18.108484 9.294324 -2.488494
-18.108170 9.306143 -2.488175
-18.108130 9.317634 -2.488194
-18.108204 9.328680 -2.488440
-18.107639 9.341310 -2.487717
-18.108124 9.363220 -2.488167
-18.108845 9.384399 -2.492210
-18.107817 9.385898 -2.490196
-18.107498 9.397662 -2.491003
-18.107576 9.408277 -2.491224
-18.108673 9.417869 -2.487657
-18.107847 9.451779 -2.489308
-18.109156 9.471838 -2.490185
-18.108774 9.482633 -2.492478
-18.108257 9.483377 -2.489749
-18.108162 9.494820 -2.491723
-18.109200 9.503541 -2.490539
-18.108320 9.504737 -2.491969
-18.107784 9.537885 -2.487125
-18.109213 9.627864 -2.448993
-18.108856 9.648885 -2.442455
-18.108986 9.658550 -2.442897
-18.109232 9.668378 -2.445297
-18.108860 9.678643 -2.445342
-18.107992 9.689709 -2.446935
-18.109035 9.698175 -2.447954
-18.109055 9.708052 -2.448065
-18.108292 9.709002 -2.451650
-18.108965 9.717695 -2.454677
-18.108099 9.718794 -2.455977
-18.107920 9.728772 -2.460229
-18.109341 9.736827 -2.463553
-18.107639 9.738975 -2.466333
-18.108829 9.745405 -2.467975
-18.109306 9.746446 -2.465919
-18.107931 9.748169 -2.468895
-18.108147 9.757378 -2.473377
-18.108698 9.756691 -2.471694
-18.109226 9.757963 -2.472961
-18.109287 9.765519 -2.472365
-18.107574 9.767708 -2.475075
-18.107924 9.786131 -2.476899
-18.108051 9.804930 -2.479387
-18.107529 9.814832 -2.481201
-18.108232 9.823329 -2.481847
-18.108921 9.822441 -2.480409
-18.108208 9.832687 -2.482017
-18.107845 9.842337 -2.481887
-18.107573 9.861778 -2.483487
-18.108011 9.869796 -2.483601
-18.107916 9.873050 -2.484850
-18.107426 9.879562 -2.483462
-18.107990 9.888050 -2.486020
-18.109310 9.895495 -2.485327
-18.108822 9.914035 -2.485381
-18.108826 9.922995 -2.488464
-18.108707 9.923156 -2.486432
-18.108955 9.931747 -2.484913
-18.107992 9.941736 -2.488247
-18.108320 9.950127 -2.486869
-18.106064 9.215678 -2.487768
-18.106937 9.226058 -2.486212
-18.106419 9.226814 -2.488146
-18.107332 9.237371 -2.488989
-18.105839 9.263149 -2.489933
-18.106512 9.273652 -2.488178
-18.106476 9.285363 -2.489323
-18.106913 9.296620 -2.489463
-18.107025 9.296698 -2.489917
-18.106359 9.308783 -2.488984
-18.107248 9.313283 -2.490496
-18.107111 9.319104 -2.489497
-18.106630 9.330954 -2.489335
-18.106712 9.353680 -2.489297
-18.106682 9.353690 -2.487044
-18.106817 9.365084 -2.489386
-18.106636 9.376359 -2.491336
-18.106356 9.376785 -2.488920
-18.105484 9.389203 -2.491584
-18.106218 9.399472 -2.492073
-18.106333 9.421211 -2.490074
-18.107094 9.420096 -2.488509
-18.107229 9.430868 -2.490791
-18.105619 9.444288 -2.489456
-18.106022 9.454328 -2.489836
-18.106878 9.464343 -2.490460
-18.106197 9.475954 -2.490002
-18.106810 9.516440 -2.489203
-18.105488 9.592248 -2.466595
-18.106956 9.594579 -2.464796
-18.106714 9.601168 -2.461061
-18.106195 9.642745 -2.444136
-18.105541 9.653251 -2.441934
