-18.370207 9.610367 -2.401137
-18.369188 9.611523 -2.413836
-18.369984 9.620278 -2.463314
-18.370716 9.623855 -2.385786
-18.369362 9.625586 -2.364077
-18.369658 9.634648 -2.432769
-18.370264 9.634371 -2.420798
-18.370340 9.634345 -2.419386
-18.370577 9.634319 -2.407188
-18.369656 9.634847 -2.376383
-18.369495 9.640583 -2.435684
-18.370092 9.639953 -2.417220
-18.370934 9.638982 -2.408932
-18.369371 9.640818 -2.405622
-18.369810 9.649869 -2.450034
-18.370712 9.648815 -2.448546
-18.369551 9.661841 -2.374611
-18.369577 9.689210 -2.456304
-18.367399 9.418214 -2.404392
-18.368586 9.500773 -2.379843
-18.367296 9.513340 -2.451493
-18.367971 9.511975 -2.373471
-18.368610 9.530795 -2.341363
-18.367912 9.552915 -2.397483
-18.367817 9.553006 -2.396326
-18.369116 9.561603 -2.372024
-18.368584 9.562225 -2.369493
-18.367311 9.563759 -2.381013
-18.367435 9.563637 -2.372024
-18.368744 9.572068 -2.415800
-18.369110 9.571932 -2.324277
-18.368195 9.582657 -2.454514
-18.368118 9.582802 -2.443214
-18.368286 9.582592 -2.441091
-18.367805 9.583256 -2.419358
-18.367952 9.602877 -2.462506
-18.368923 9.601798 -2.437410
-18.368784 9.602094 -2.402557
-18.368729 9.609241 -2.364239
-18.367359 9.610135 -2.394487
-18.368311 9.609728 -2.341498
-18.368444 9.609665 -2.338721
-18.368010 9.612880 -2.431000
-18.368507 9.612650 -2.323497
-18.369066 9.621677 -2.382149
-18.368322 9.622639 -2.353635
-18.367413 9.623550 -2.408871
-18.368528 9.625879 -2.388531
-18.368519 9.631962 -2.438434
-18.367950 9.635747 -2.428253
-18.368399 9.635690 -2.404203
-18.367317 9.636381 -2.402646
-18.367458 9.636314 -2.399810
-18.367205 9.636489 -2.363374
-18.368195 9.635915 -2.359034
-18.369032 9.641205 -2.422049
-18.368607 9.641687 -2.420615
-18.368820 9.641508 -2.396268
-18.367430 9.643109 -2.417524
-18.367577 9.643017 -2.397603
-18.369078 9.652377 -2.444846
-18.367233 9.654161 -2.381481
-18.368603 9.662469 -2.370291
-18.368650 9.690279 -2.457818
-18.365374 9.473475 -2.390968
-18.365578 9.512594 -2.405226
-18.366762 9.523753 -2.349503
-18.366444 9.532166 -2.338361
-18.365765 9.555717 -2.342519
-18.365376 9.566107 -2.381885
-18.365955 9.565569 -2.332415
-18.365971 9.568192 -2.384821
-18.365276 9.568786 -2.367724
-18.365482 9.568778 -2.321409
-18.366686 9.574844 -2.338569
-18.367039 9.584082 -2.451365
-18.366470 9.584859 -2.420636
-18.366383 9.585666 -2.405560
-18.366137 9.595029 -2.460443
-18.366398 9.594733 -2.458316
-18.366539 9.594603 -2.453982
-18.365927 9.595388 -2.438918
-18.365330 9.596048 -2.455266
-18.366741 9.604322 -2.463815
-18.366598 9.604533 -2.459169
-18.365820 9.605446 -2.456476
-18.366434 9.605124 -2.349176
-18.366173 9.610870 -2.361196
-18.366907 9.614469 -2.353803
-18.366499 9.624442 -2.462779
-18.366875 9.624289 -2.382734
-18.367023 9.624186 -2.359388
-18.366896 9.624313 -2.357059
-18.366903 9.627091 -2.366739
-18.366171 9.627628 -2.358094
-18.366316 9.627560 -2.355134
-18.366346 9.627622 -2.346690
-18.366337 9.634677 -2.404549
-18.366943 9.636471 -2.417606
-18.367153 9.636523 -2.398231
-18.366892 9.636703 -2.361938
-18.366325 9.636734 -2.429635
-18.365555 9.637354 -2.414386
-18.366022 9.637084 -2.412857
-18.367167 9.643468 -2.401697
-18.365967 9.644918 -2.398666
-18.366243 9.644601 -2.392155
-18.365606 9.645355 -2.387213
-18.365728 9.654946 -2.375957
-18.366377 9.663788 -2.375889
-18.367188 9.682363 -2.454696
-18.364454 9.411317 -2.406072
-18.363741 9.475518 -2.396697
-18.363865 9.506626 -2.369632
-18.364590 9.526326 -2.376423
-18.364594 9.526341 -2.374206
-18.363487 9.533969 -2.343776
-18.364023 9.557846 -2.336815
-18.364695 9.558710 -2.393369
-18.364498 9.567158 -2.383417
-18.363720 9.568230 -2.354656
-18.363363 9.568560 -2.375875
-18.364756 9.569090 -2.370466
-18.364620 9.569213 -2.331001
-18.364197 9.587502 -2.455971
-18.364765 9.586806 -2.454104
-18.364527 9.586924 -2.429672
-18.363712 9.588098 -2.446733
-18.364386 9.597161 -2.463527
-18.364294 9.597292 -2.461238
-18.365137 9.596272 -2.450619
-18.364704 9.596816 -2.448117
-18.365034 9.596448 -2.440491
-18.363495 9.598222 -2.465079
-18.363457 9.600180 -2.428228
-18.364891 9.606536 -2.464598
-18.363333 9.608628 -2.408733
-18.364569 9.611930 -2.388351
-18.365063 9.611868 -2.328729
-18.364090 9.617682 -2.407898
-18.363680 9.618253 -2.372813
-18.365099 9.626371 -2.392607
-18.364695 9.628340 -2.413389
-18.364317 9.627228 -2.411053
-18.363903 9.627743 -2.408463
-18.363676 9.628008 -2.403881
-18.363867 9.628834 -2.380851
-18.363678 9.628118 -2.375941
-18.363762 9.628011 -2.371604
-18.364506 9.628560 -2.368108
-18.364162 9.628854 -2.359412
-18.363487 9.628421 -2.352334
-18.363598 9.629102 -2.404414
-18.363510 9.629218 -2.398549
-18.364052 9.637377 -2.409529
-18.363804 9.637704 -2.400451
-18.364681 9.646438 -2.388834
-18.363832 9.647482 -2.380415
-18.365089 9.655635 -2.387830
-18.364208 9.657656 -2.406227
-18.363018 9.434225 -2.428784
-18.362944 9.445230 -2.361037
-18.362604 9.455967 -2.383652
-18.362265 9.466937 -2.381945
-18.362823 9.487164 -2.414128
-18.363253 9.517821 -2.372367
-18.362612 9.528758 -2.377327
-18.363031 9.533978 -2.334026
-18.361803 9.560333 -2.412239
-18.362455 9.560124 -2.391707
-18.362425 9.559788 -2.337970
-18.362959 9.570087 -2.383140
-18.362820 9.569310 -2.356294
-18.361937 9.570744 -2.380301
-18.361732 9.570600 -2.359994
-18.361431 9.580749 -2.461980
-18.362091 9.580079 -2.432204
-18.362309 9.589758 -2.458986
-18.362732 9.589306 -2.441444
-18.363031 9.589116 -2.394431
-18.361696 9.590523 -2.456385
-18.362986 9.598920 -2.444552
-18.362520 9.599456 -2.442076
-18.362843 9.599085 -2.441051
-18.362808 9.628974 -2.427792
-18.361786 9.630246 -2.411395
-18.361357 9.630513 -2.402748
-18.363049 9.629485 -2.399964
-18.363266 9.629390 -2.395641
-18.362669 9.629259 -2.388603
-18.362829 9.629199 -2.358625
-18.361357 9.630657 -2.353454
-18.362343 9.630087 -2.349256
-18.361483 9.640353 -2.430924
-18.362783 9.638859 -2.415280
-18.362091 9.639682 -2.412588
-18.362099 9.639741 -2.396940
-18.362272 9.639570 -2.395003
-18.362591 9.639168 -2.392842
-18.362349 9.639544 -2.393591
-18.361622 9.640307 -2.394352
-18.363268 9.638994 -2.390664
-18.362646 9.639420 -2.387720
-18.361710 9.640244 -2.379941
-18.362316 9.639704 -2.378822
-18.361702 9.639962 -2.357137
-18.362518 9.641948 -2.391687
-18.362419 9.649174 -2.383705
-18.361540 9.650198 -2.380940
-18.362495 9.665835 -2.447238
-18.359699 9.470173 -2.377826
-18.359575 9.510397 -2.437653
-18.359726 9.511755 -2.375722
-18.360140 9.521670 -2.372404
-18.361259 9.530544 -2.343280
-18.360838 9.551200 -2.392692
-18.361027 9.561363 -2.377706
-18.359608 9.567383 -2.366414
-18.360680 9.571568 -2.456278
-18.360737 9.571489 -2.451918
-18.359571 9.572135 -2.388858
-18.359697 9.572158 -2.378670
-18.360909 9.571629 -2.357105
-18.359859 9.572157 -2.333387
-18.361221 9.571349 -2.329302
-18.360010 9.572164 -2.322375
-18.359514 9.572964 -2.453136
-18.359777 9.572917 -2.382380
-18.359484 9.573421 -2.330190
-18.360943 9.581366 -2.459464
-18.360823 9.581607 -2.433584
-18.360558 9.581921 -2.428847
-18.361252 9.581125 -2.418189
-18.359449 9.583147 -2.462895
-18.359732 9.582898 -2.437130
-18.359737 9.582940 -2.425995
-18.361038 9.591344 -2.442319
-18.359825 9.592742 -2.463932
-18.359835 9.592752 -2.461630
-18.360546 9.591880 -2.460069
-18.360739 9.591882 -2.394992
-18.361320 9.601091 -2.384952
-18.359699 9.613148 -2.361202
-18.360683 9.614406 -2.380766
-18.361139 9.614143 -2.379464
-18.361242 9.613870 -2.366696
-18.360317 9.622196 -2.402862
-18.360638 9.621823 -2.396429
-18.361086 9.628043 -2.359940
-18.360712 9.630709 -2.389553
-18.360722 9.631453 -2.424026
-18.360600 9.631720 -2.399444
-18.360106 9.631045 -2.393927
-18.360907 9.631383 -2.391807
-18.359863 9.631215 -2.390943
-18.360338 9.632068 -2.380305
-18.361219 9.631041 -2.372021
-18.359816 9.642361 -2.424067
-18.360128 9.641980 -2.422216
-18.361031 9.640972 -2.409494
-18.359871 9.641121 -2.388887
-18.361067 9.640987 -2.389555
-18.360720 9.641398 -2.388198
-18.359785 9.641235 -2.382921
-18.360189 9.642049 -2.383310
-18.360310 9.640929 -2.380111
-18.359686 9.642670 -2.380836
-18.360428 9.661199 -2.382146
-18.358334 9.450872 -2.412116
-18.358007 9.451299 -2.406077
-18.357435 9.498590 -2.388517
-18.359270 9.510607 -2.436093
-18.359289 9.532887 -2.368066
-18.358093 9.534409 -2.362604
-18.357960 9.554723 -2.391697
-18.359049 9.563608 -2.432806
-18.358709 9.562571 -2.415117
-18.358961 9.563847 -2.387597
-18.359131 9.563711 -2.374113
-18.359285 9.573285 -2.448412
-18.358875 9.572588 -2.387326
-18.358082 9.574728 -2.456483
-18.357828 9.575039 -2.446230
-18.358208 9.584775 -2.433822
-18.358587 9.584362 -2.422838
-18.358425 9.584532 -2.420524
-18.357569 9.585668 -2.405216
-18.358688 9.586172 -2.426262
-18.357500 9.585971 -2.329635
-18.358826 9.603170 -2.379015
-18.359287 9.602901 -2.377537
-18.358437 9.614527 -2.397249
-18.358263 9.614775 -2.392588
-18.358606 9.615674 -2.383564
-18.358114 9.615730 -2.374947
-18.358463 9.615575 -2.367924
-18.358198 9.615843 -2.357764
-18.357918 9.616121 -2.347893
-18.357765 9.625262 -2.396505
-18.357897 9.625178 -2.373144
-18.358526 9.632168 -2.379066
-18.357578 9.632797 -2.374746
-18.359268 9.631769 -2.371961
-18.358398 9.632513 -2.350453
-18.358532 9.634175 -2.395589
-18.358372 9.634406 -2.392178
-18.357750 9.635134 -2.392878
-18.357775 9.642461 -2.384280
-18.358673 9.643706 -2.424466
-18.359369 9.642925 -2.414879
-18.359221 9.643187 -2.384824
-18.357483 9.642660 -2.348425
-18.357841 9.644738 -2.418199
-18.358515 9.663446 -2.378564
-18.356825 9.421033 -2.424804
-18.356501 9.421495 -2.409453
-18.356243 9.442904 -2.403901
-18.356293 9.453604 -2.364330
-18.357183 9.462871 -2.370501
-18.356617 9.463602 -2.363212
-18.356602 9.473984 -2.400950
-18.355612 9.475232 -2.397875
-18.357147 9.494260 -2.407483
-18.355665 9.507215 -2.469896
-18.355679 9.507596 -2.367773
-18.357367 9.525095 -2.372596
-18.356173 9.526561 -2.374036
-18.357002 9.535732 -2.359642
-18.357246 9.563190 -2.410426
-18.356586 9.563826 -2.351039
-18.355543 9.564523 -2.416362
-18.356113 9.567184 -2.428410
-18.356779 9.566678 -2.338551
-18.356997 9.573475 -2.416766
-18.357292 9.573635 -2.413726
-18.356722 9.574171 -2.326249
-18.357363 9.575630 -2.443635
-18.355799 9.574645 -2.371386
-18.355656 9.574712 -2.340160
-18.355919 9.577335 -2.459371
-18.356131 9.577095 -2.457325
-18.356216 9.577053 -2.440504
-18.355814 9.577790 -2.365926
-18.355589 9.578100 -2.346562
-18.357035 9.586103 -2.454211
-18.356564 9.586699 -2.451634
-18.356304 9.587054 -2.446996
-18.356903 9.586354 -2.439508
-18.356733 9.586534 -2.437240
-18.357004 9.587333 -2.379225
-18.356001 9.587852 -2.317400
-18.355627 9.592375 -2.403534
-18.355850 9.592278 -2.399110
-18.356379 9.591971 -2.396304
-18.355732 9.598053 -2.358705
-18.356590 9.606843 -2.379328
-18.357370 9.616422 -2.384961
-18.355879 9.617596 -2.396480
-18.355722 9.617195 -2.376199
-18.357231 9.625932 -2.398323
-18.356592 9.626725 -2.385631
-18.357018 9.633186 -2.370450
-18.356747 9.633600 -2.344721
-18.356922 9.636128 -2.382255
-18.355858 9.637428 -2.379141
-18.356455 9.636753 -2.365091
-18.356230 9.637062 -2.360506
-18.357304 9.645351 -2.425649
-18.356524 9.646311 -2.415090
-18.355671 9.666846 -2.375315
-18.355507 9.667016 -2.372998
-18.353659 9.435635 -2.427803
-18.354639 9.476562 -2.371830
-18.353767 9.477557 -2.395336
-18.354307 9.476897 -2.393475
-18.354939 9.497197 -2.362399
-18.354200 9.539740 -2.344594
-18.355032 9.540985 -2.343497
-18.355444 9.557801 -2.392166
-18.354073 9.565379 -2.422390
-18.353762 9.565592 -2.420920
-18.354584 9.565053 -2.352295
-18.354408 9.565203 -2.348020
-18.354885 9.568882 -2.375597
-18.353661 9.575936 -2.375420
-18.354156 9.575728 -2.365533
-18.353544 9.576067 -2.335859
-18.354671 9.578839 -2.460659
-18.353903 9.578973 -2.436944
-18.355282 9.578421 -2.367723
-18.354731 9.588955 -2.447973
-18.355469 9.588045 -2.444142
-18.354544 9.589213 -2.438904
-18.354418 9.588965 -2.393085
-18.353729 9.590187 -2.441556
-18.353823 9.590168 -2.414828
-18.354153 9.619689 -2.399597
-18.354416 9.619460 -2.369609
-18.353727 9.620335 -2.354563
-18.355104 9.628560 -2.368948
-18.354345 9.629434 -2.372800
-18.353636 9.635223 -2.375940
-18.355379 9.637885 -2.417788
-18.354998 9.638521 -2.361923
-18.354679 9.638916 -2.354898
-18.353798 9.644906 -2.352381
-18.354258 9.644641 -2.350995
-18.353756 9.644992 -2.345349
-18.355333 9.667241 -2.370779
-18.352814 9.415308 -2.399063
-18.352753 9.426286 -2.408921
-18.352896 9.436634 -2.425002
-18.353168 9.446761 -2.419096
-18.352692 9.458161 -2.364056
-18.353491 9.467497 -2.378176
-18.351585 9.480330 -2.389103
-18.352526 9.479174 -2.378418
-18.352261 9.501863 -2.383842
-18.353491 9.501114 -2.382476
-18.351801 9.521632 -2.365368
-18.352154 9.531226 -2.457481
-18.352814 9.539356 -2.471355
-18.352657 9.540760 -2.463117
-18.352898 9.540865 -2.341876
-18.353033 9.560823 -2.380225
-18.352442 9.561663 -2.346955
-18.351614 9.562542 -2.376919
-18.352573 9.566240 -2.395611
-18.352554 9.566310 -2.388191
-18.351601 9.566958 -2.417624
-18.351593 9.566731 -2.407247
-18.352160 9.566637 -2.380730
-18.352877 9.571176 -2.423677
-18.352613 9.571651 -2.376124
-18.352901 9.572110 -2.358789
-18.353329 9.570909 -2.346201
-18.352806 9.571520 -2.343567
-18.353458 9.570742 -2.342797
-18.351704 9.572844 -2.351755
-18.352104 9.572390 -2.347495
-18.353317 9.576008 -2.389947
-18.352736 9.576493 -2.412035
-18.352057 9.577076 -2.361047
-18.353086 9.576332 -2.337227
-18.352766 9.581403 -2.391846
-18.351917 9.582295 -2.428245
-18.353048 9.591239 -2.369365
-18.351713 9.592564 -2.459110
-18.352297 9.594467 -2.400303
-18.352591 9.594347 -2.394551
-18.353113 9.604001 -2.367193
-18.352880 9.611288 -2.387692
-18.352200 9.612126 -2.380572
-18.352840 9.619026 -2.371828
-18.353497 9.620538 -2.377998
-18.352083 9.622160 -2.395863
-18.351700 9.622760 -2.365436
-18.352249 9.632000 -2.356729
-18.352003 9.641921 -2.406357
-18.352770 9.641188 -2.355896
-18.352566 9.645650 -2.353720
-18.352812 9.648083 -2.344169
-18.352613 9.651543 -2.411092
-18.351543 9.427815 -2.410417
-18.350023 9.435399 -2.386279
-18.351549 9.448863 -2.398202
-18.351164 9.460137 -2.354919
-18.350695 9.481404 -2.401158
-18.351288 9.491097 -2.397880
-18.351139 9.491318 -2.389707
-18.351398 9.490997 -2.378554
-18.350580 9.502892 -2.386558
-18.351444 9.522095 -2.362829
-18.350569 9.533162 -2.465303
-18.349771 9.534114 -2.469183
-18.350178 9.533669 -2.462745
-18.351429 9.538862 -2.415039
-18.350060 9.543899 -2.470159
-18.349762 9.544288 -2.467611
-18.351267 9.552778 -2.425443
-18.350540 9.563885 -2.373862
-18.350513 9.567423 -2.405660
-18.351089 9.567244 -2.386580
-18.350784 9.567453 -2.384974
-18.351471 9.573118 -2.358383
-18.350836 9.573928 -2.348951
-18.351528 9.573082 -2.339207
-18.351027 9.573717 -2.336582
-18.349655 9.575026 -2.442698
-18.349800 9.574889 -2.439473
-18.350452 9.574262 -2.379122
-18.351414 9.577355 -2.373973
-18.351212 9.577581 -2.362390
-18.351383 9.577514 -2.324614
-18.351355 9.582880 -2.460456
-18.350595 9.583902 -2.434013
-18.350973 9.583430 -2.429953
-18.351419 9.582924 -2.425742
-18.350285 9.584333 -2.422560
-18.350489 9.584055 -2.420434
-18.350677 9.591561 -2.327175
-18.350513 9.594245 -2.397763
-18.349981 9.594866 -2.395260
-18.351212 9.595541 -2.325870
-18.351543 9.595480 -2.311159
-18.349915 9.596326 -2.328628
-18.351305 9.603415 -2.357777
-18.350576 9.604279 -2.359431
-18.350309 9.624355 -2.384647
-18.349777 9.624990 -2.379772
-18.350874 9.623749 -2.361516
-18.350161 9.634442 -2.378634
-18.350803 9.633679 -2.372421
-18.350977 9.633586 -2.344666
-18.350601 9.635489 -2.352387
-18.350664 9.643517 -2.412056
-18.349911 9.644440 -2.409270
-18.351505 9.646408 -2.343864
-18.350950 9.649215 -2.330079
-18.348515 9.420674 -2.439941
-18.348772 9.431378 -2.396736
-18.348433 9.431789 -2.410382
-18.349394 9.441164 -2.395792
-18.347679 9.453758 -2.399967
-18.348223 9.474038 -2.395081
-18.348547 9.491868 -2.380250
-18.348989 9.494039 -2.381202
-18.347866 9.495352 -2.406815
-18.348774 9.494230 -2.405142
-18.347660 9.495644 -2.397425
-18.348297 9.503759 -2.376652
-18.348406 9.505193 -2.405618
-18.348530 9.517707 -2.354455
-18.347664 9.526404 -2.471427
-18.349386 9.534646 -2.457573
-18.347803 9.536581 -2.465384
-18.348509 9.535716 -2.459164
-18.348961 9.545322 -2.462476
-18.349590 9.568257 -2.377821
-18.348993 9.568588 -2.381978
-18.347910 9.569270 -2.346301
-18.349607 9.575106 -2.441485
-18.349449 9.575322 -2.427948
-18.349279 9.575721 -2.375945
-18.349571 9.575415 -2.364885
-18.349339 9.578546 -2.417840
-18.349022 9.578822 -2.341142
-18.349442 9.585332 -2.430897
-18.349182 9.585758 -2.386914
-18.347946 9.587184 -2.416336
-18.348553 9.586583 -2.376337
-18.348881 9.586330 -2.339492
-18.349035 9.586110 -2.337448
-18.347818 9.587632 -2.328664
-18.348724 9.586544 -2.326983
-18.348804 9.596723 -2.392798
-18.349194 9.595848 -2.392281
-18.349316 9.595925 -2.321666
-18.349474 9.596663 -2.321768
-18.348658 9.612247 -2.373103
-18.348280 9.621880 -2.370063
-18.349581 9.625210 -2.381734
-18.349485 9.625356 -2.372783
-18.348696 9.626362 -2.362162
-18.348480 9.626613 -2.357509
-18.348682 9.626389 -2.355514
-18.347969 9.627226 -2.367272
-18.349379 9.635403 -2.375857
-18.349573 9.635140 -2.373798
-18.349335 9.635550 -2.350228
-18.348553 9.636465 -2.347350
-18.348085 9.637046 -2.344845
-18.349430 9.644989 -2.406834
-18.348238 9.648476 -2.339402
-18.348255 9.648544 -2.331174
-18.346729 9.433912 -2.414936
-18.346861 9.433786 -2.410404
-18.347273 9.443800 -2.418476
-18.347622 9.464423 -2.406507
-18.346024 9.493405 -2.384355
-18.346285 9.492948 -2.375775
-18.346174 9.497644 -2.357422
-18.346943 9.505050 -2.438732
-18.346331 9.505766 -2.363358
-18.347492 9.536828 -2.404371
-18.346500 9.546013 -2.356827
-18.347475 9.557262 -2.471054
-18.346706 9.558232 -2.468239
-18.346481 9.558660 -2.419584
-18.346518 9.558909 -2.342661
-18.346115 9.569000 -2.464093
-18.346399 9.568668 -2.461881
-18.346344 9.570040 -2.403873
-18.346764 9.568471 -2.388062
-18.347507 9.577738 -2.417495
-18.347485 9.577982 -2.353181
-18.346405 9.578986 -2.449177
-18.346972 9.578311 -2.447342
-18.346447 9.578925 -2.444819
-18.346354 9.579060 -2.442354
-18.346752 9.578887 -2.357183
-18.347317 9.578208 -2.350876
-18.345947 9.580454 -2.405581
-18.347044 9.588384 -2.389921
-18.347307 9.588073 -2.383367
-18.346832 9.588675 -2.380750
-18.347191 9.588388 -2.333748
-18.346783 9.588909 -2.332303
-18.346590 9.589115 -2.330013
-18.346846 9.588863 -2.323392
-18.347626 9.593033 -2.411261
-18.346586 9.598998 -2.388254
-18.346066 9.599900 -2.312568
-18.345984 9.609765 -2.379660
-18.347073 9.610512 -2.374009
-18.347298 9.611422 -2.428814
-18.346188 9.619491 -2.342676
-18.347452 9.622538 -2.355611
-18.347424 9.627854 -2.375730
-18.347437 9.627851 -2.369040
-18.347136 9.638179 -2.350802
-18.347006 9.649220 -2.340740
-18.344229 9.426304 -2.399718
-18.344568 9.438801 -2.387371
-18.345427 9.446129 -2.426288
-18.344563 9.447238 -2.414138
-18.345650 9.446020 -2.375644
-18.344822 9.464857 -2.403347
-18.345007 9.478135 -2.390346
-18.343956 9.500296 -2.385603
-18.344715 9.506755 -2.364699
-18.345560 9.519129 -2.439631
-18.345167 9.519433 -2.432106
-18.344084 9.519869 -2.419930
-18.345184 9.535729 -2.387936
-18.345436 9.539548 -2.451220
-18.343826 9.541486 -2.466859
-18.344133 9.547626 -2.348950
-18.345673 9.549316 -2.468935
-18.343988 9.551414 -2.460971
-18.345570 9.559796 -2.423453
-18.344833 9.560688 -2.414937
-18.344330 9.571189 -2.458180
-18.345163 9.570835 -2.396516
-18.344410 9.571371 -2.354401
-18.345491 9.580087 -2.450752
-18.345093 9.580651 -2.426896
-18.344633 9.581232 -2.408472
-18.343939 9.581684 -2.406939
-18.345318 9.580867 -2.402676
-18.344236 9.581559 -2.401118
-18.344215 9.581634 -2.393808
-18.344679 9.581365 -2.392350
-18.344727 9.581353 -2.356871
-18.345333 9.590228 -2.458064
-18.345476 9.599128 -2.324270
-18.344257 9.599949 -2.317453
-18.345539 9.600569 -2.314464
-18.344303 9.602056 -2.315835
-18.345604 9.611445 -2.372486
-18.345091 9.624067 -2.348493
-18.344452 9.631512 -2.345704
-18.345348 9.650308 -2.335107
-18.345098 9.650483 -2.332250
-18.343176 9.449033 -2.410755
-18.342688 9.449847 -2.353886
-18.341944 9.455067 -2.444771
-18.342028 9.455034 -2.443169
-18.343409 9.459119 -2.416356
-18.343334 9.459276 -2.409348
-18.343435 9.469700 -2.418228
-18.342653 9.470664 -2.416617
-18.343006 9.470454 -2.359275
-18.342485 9.481289 -2.393029
-18.341970 9.482076 -2.357250
-18.343405 9.495063 -2.382738
-18.341909 9.495664 -2.378388
-18.343664 9.494606 -2.374159
-18.342091 9.502619 -2.397908
-18.342566 9.502060 -2.378817
-18.343555 9.507185 -2.436989
-18.343468 9.507595 -2.358758
-18.342079 9.508263 -2.378774
-18.342241 9.508341 -2.360048
-18.342741 9.512316 -2.394621
-18.342888 9.512255 -2.355947
-18.343447 9.520861 -2.355589
-18.342274 9.523189 -2.359926
-18.343439 9.531709 -2.448967
-18.342430 9.533258 -2.365341
-18.341850 9.544297 -2.365854
-18.343140 9.552434 -2.469425
-18.343491 9.552385 -2.365645
-18.342087 9.553721 -2.470730
-18.343164 9.552841 -2.354200
-18.342175 9.561102 -2.428423
-18.342331 9.561105 -2.417779
-18.343184 9.560595 -2.416314
-18.342344 9.563593 -2.462572
-18.341900 9.564195 -2.451027
-18.343132 9.562787 -2.423796
-18.343233 9.562693 -2.414894
-18.342468 9.563687 -2.388388
-18.343393 9.571897 -2.400870
-18.342981 9.572839 -2.463900
-18.343292 9.572488 -2.455088
-18.342855 9.572996 -2.452547
-18.342133 9.573907 -2.449721
-18.342665 9.573350 -2.424373
-18.342699 9.572349 -2.399308
-18.342443 9.583768 -2.455082
-18.343670 9.582284 -2.453884
-18.343555 9.582443 -2.451495
-18.342777 9.583727 -2.357752
-18.343134 9.593079 -2.401551
-18.343147 9.600261 -2.389509
-18.342587 9.600967 -2.319922
-18.342455 9.601091 -2.314593
-18.343027 9.613415 -2.356311
-18.342094 9.624304 -2.375369
-18.343632 9.632554 -2.335079
-18.341927 9.634554 -2.339465
-18.342857 9.646585 -2.347802
-18.343731 9.651291 -2.336422
-18.341555 9.461275 -2.474774
-18.340103 9.462288 -2.445557
-18.341074 9.462131 -2.405440
-18.341429 9.472441 -2.360521
-18.341009 9.472808 -2.403820
-18.340588 9.473370 -2.390935
-18.340866 9.473188 -2.350855
-18.340443 9.473696 -2.349387
-18.340731 9.483669 -2.353953
-18.341604 9.492862 -2.392119
-18.340944 9.496562 -2.385480
-18.341156 9.503649 -2.438287
-18.339849 9.505412 -2.394053
-18.340235 9.509143 -2.448958
-18.340940 9.508839 -2.435298
-18.340233 9.522535 -2.430414
-18.340075 9.522907 -2.361179
-18.341694 9.521916 -2.359742
-18.340998 9.522370 -2.358244
-18.340843 9.545134 -2.471460
-18.340084 9.546119 -2.466288
-18.340593 9.547789 -2.426931
-18.341702 9.547128 -2.386776
-18.339931 9.548252 -2.383599
-18.341530 9.554440 -2.472610
-18.340225 9.556166 -2.427687
-18.340836 9.555746 -2.335416
-18.340252 9.562442 -2.413001
-18.341391 9.564836 -2.445003
-18.341614 9.564643 -2.424958
-18.340563 9.565976 -2.405041
-18.339930 9.566704 -2.425892
-18.340036 9.566634 -2.409194
-18.340055 9.566632 -2.406809
-18.341560 9.572523 -2.442146
-18.341785 9.574412 -2.425952
-18.340977 9.583629 -2.396649
-18.340828 9.585783 -2.456250
-18.341358 9.585176 -2.430756
-18.341749 9.584734 -2.426696
-18.340616 9.584216 -2.357370
-18.340883 9.585975 -2.380032
-18.341282 9.595313 -2.409113
-18.341194 9.595430 -2.402393
-18.340252 9.596625 -2.397177
-18.340139 9.596837 -2.373584
-18.341511 9.604942 -2.453631
-18.340702 9.608094 -2.401639
-18.339952 9.614976 -2.369299
-18.340027 9.614950 -2.367874
-18.341778 9.624712 -2.362959
-18.340864 9.625775 -2.376779
-18.340315 9.626493 -2.365216
-18.340370 9.626439 -2.359628
-18.340738 9.635970 -2.340791
-18.341181 9.635477 -2.336648
-18.340788 9.635971 -2.335322
-18.340321 9.643835 -2.339512
-18.341438 9.652793 -2.327837
-18.339457 9.432442 -2.391528
-18.339584 9.441867 -2.394569
-18.339506 9.441897 -2.396073
-18.339039 9.442248 -2.390056
-18.338297 9.455170 -2.429086
-18.339205 9.464537 -2.401712
-18.338995 9.464920 -2.357822
-18.338146 9.476192 -2.472754
-18.338171 9.476562 -2.360471
-18.338661 9.486140 -2.378888
-18.339058 9.506376 -2.402554
-18.339371 9.510174 -2.355601
-18.339832 9.515711 -2.461799
-18.339224 9.522924 -2.416635
-18.339478 9.536624 -2.443832
-18.339828 9.536330 -2.402032
-18.339439 9.535397 -2.369667
-18.339130 9.535611 -2.368187
-18.338575 9.547974 -2.467370
-18.338976 9.548777 -2.428358
-18.338638 9.548038 -2.425716
-18.338749 9.548960 -2.425412
-18.338623 9.558075 -2.450183
-18.339762 9.556738 -2.438616
-18.339758 9.556714 -2.436420
-18.338453 9.558391 -2.428628
-18.339142 9.557755 -2.363636
-18.338209 9.558945 -2.343816
-18.339558 9.562752 -2.426656
-18.338709 9.563342 -2.420590
-18.339439 9.567213 -2.451414
-18.338810 9.567983 -2.446536
-18.338942 9.567841 -2.445361
-18.339161 9.567632 -2.427651
-18.338781 9.568370 -2.351785
-18.338078 9.575446 -2.375640
-18.339323 9.577436 -2.419587
-18.339140 9.577715 -2.408316
-18.338478 9.578428 -2.444763
-18.338287 9.578745 -2.409821
-18.338066 9.579114 -2.383933
-18.338022 9.582699 -2.351467
-18.339224 9.584823 -2.418671
-18.338587 9.585096 -2.397891
-18.338230 9.588951 -2.456364
-18.338091 9.589205 -2.426137
-18.338211 9.589196 -2.384714
-18.338848 9.598352 -2.390624
-18.338907 9.598271 -2.386164
-18.338587 9.603119 -2.387708
-18.339430 9.602993 -2.313074
-18.338432 9.618980 -2.355145
-18.339476 9.627513 -2.352254
-18.338314 9.629014 -2.338154
-18.339476 9.644339 -2.340827
-18.339678 9.644254 -2.336734
-18.337837 9.434506 -2.392557
-18.337379 9.445964 -2.392953
-18.337374 9.458223 -2.361797
-18.336493 9.458795 -2.358819
-18.337591 9.458126 -2.357369
-18.336512 9.467905 -2.416958
-18.336050 9.479094 -2.402520
-18.336243 9.478884 -2.383148
-18.336813 9.485149 -2.384285
-18.336706 9.488625 -2.381971
-18.336899 9.488403 -2.379792
-18.336477 9.488942 -2.368182
-18.336802 9.509352 -2.365481
-18.337299 9.510936 -2.453414
-18.337378 9.510907 -2.451976
-18.337133 9.511592 -2.354017
-18.336014 9.511859 -2.440914
-18.336107 9.511896 -2.390128
-18.337626 9.524416 -2.363833
-18.336237 9.540626 -2.445817
-18.337399 9.549790 -2.388033
-18.336929 9.560271 -2.422893
-18.336475 9.564816 -2.411237
-18.337540 9.564493 -2.340636
-18.336990 9.570242 -2.439440
-18.337685 9.569436 -2.428664
-18.337414 9.569953 -2.383510
-18.336632 9.570623 -2.455971
-18.336510 9.571156 -2.352418
-18.337311 9.575798 -2.424386
-18.336311 9.576380 -2.428787
-18.337837 9.579306 -2.414007
-18.337402 9.580049 -2.355229
-18.336706 9.580645 -2.424338
-18.336954 9.580372 -2.415605
-18.336082 9.581439 -2.410541
-18.337311 9.590226 -2.407620
-18.336615 9.591092 -2.401442
-18.337366 9.590252 -2.381875
-18.336546 9.601099 -2.401072
-18.336401 9.601308 -2.393159
-18.337332 9.600180 -2.387211
-18.336256 9.601560 -2.369664
-18.337473 9.610086 -2.379225
-18.337194 9.610465 -2.374542
-18.337637 9.629713 -2.362048
-18.337231 9.628929 -2.350710
-18.336643 9.645851 -2.332373
-18.335119 9.444686 -2.391245
-18.335352 9.448491 -2.404191
-18.334982 9.459409 -2.447324
-18.335222 9.459107 -2.416458
-18.335423 9.469037 -2.476853
-18.333998 9.471084 -2.413948
-18.335751 9.470848 -2.378680
-18.335751 9.479175 -2.476573
-18.335527 9.479589 -2.441087
-18.335203 9.480273 -2.365155
-18.335619 9.479785 -2.360812
-18.334757 9.480665 -2.414083
-18.334820 9.486377 -2.385530
-18.333996 9.492097 -2.370846
-18.334560 9.500318 -2.370765
-18.334343 9.502040 -2.374229
-18.334927 9.512479 -2.447012
-18.334066 9.513290 -2.376820
-18.335148 9.541941 -2.459638
-18.335318 9.541936 -2.401000
-18.335196 9.542212 -2.362376
-18.335016 9.552579 -2.403773
-18.335087 9.552568 -2.390377
-18.335775 9.551782 -2.362642
-18.334265 9.553456 -2.424686
-18.335169 9.562379 -2.445227
-18.335365 9.562166 -2.437444
-18.334873 9.563025 -2.362833
-18.335218 9.562672 -2.339365
-18.335087 9.565497 -2.430854
-18.334688 9.565807 -2.423445
-18.335157 9.565535 -2.421879
-18.335497 9.565378 -2.381741
-18.334497 9.566327 -2.347445
-18.334656 9.566330 -2.336348
-18.334318 9.566479 -2.343251
-18.335009 9.569333 -2.368864
-18.335855 9.571601 -2.453171
-18.335863 9.571611 -2.450864
-18.334047 9.573909 -2.428338
-18.334839 9.573068 -2.398501
-18.334665 9.573305 -2.384906
-18.335457 9.576894 -2.430317
-18.334911 9.577273 -2.425815
-18.335808 9.581735 -2.425987
-18.335459 9.582119 -2.440253
-18.335432 9.582414 -2.360574
-18.334591 9.593557 -2.401101
-18.334248 9.603891 -2.401711
-18.334526 9.603622 -2.389625
-18.335629 9.612346 -2.371256
-18.334923 9.623184 -2.369351
-18.335886 9.642905 -2.356661
-18.334009 9.647507 -2.330767
-18.333553 9.450544 -2.467206
-18.333052 9.451491 -2.387542
-18.333387 9.461380 -2.439201
-18.333654 9.461058 -2.436943
-18.333899 9.461021 -2.360128
-18.333324 9.472269 -2.388574
-18.332991 9.472555 -2.379785
-18.333969 9.471982 -2.375658
-18.332329 9.472631 -2.365598
-18.332582 9.472590 -2.352658
-18.332439 9.473137 -2.394448
-18.332541 9.473000 -2.391111
-18.332632 9.472917 -2.381922
-18.332258 9.472656 -2.366951
-18.333305 9.482316 -2.466772
-18.333914 9.481892 -2.365353
-18.332733 9.483367 -2.378242
-18.333344 9.482658 -2.361626
-18.332146 9.493491 -2.380663
-18.333090 9.493224 -2.372484
-18.332533 9.493921 -2.367500
-18.333481 9.492638 -2.362078
-18.332174 9.495061 -2.456927
-18.332684 9.501570 -2.361891
-18.332176 9.514332 -2.391397
-18.333290 9.524230 -2.351193
-18.333063 9.527030 -2.426883
-18.333096 9.539397 -2.365001
-18.332443 9.545512 -2.394367
-18.333481 9.552295 -2.381722
-18.333586 9.554257 -2.439979
-18.332296 9.552922 -2.430986
-18.332449 9.555693 -2.425526
-18.332371 9.565819 -2.440870
-18.332138 9.566125 -2.439518
-18.332413 9.565790 -2.428542
-18.333139 9.565001 -2.411078
-18.332249 9.566075 -2.408227
-18.332174 9.566188 -2.407059
-18.333355 9.564956 -2.336872
-18.332577 9.567747 -2.450775
-18.332336 9.567327 -2.382983
-18.333242 9.566939 -2.330643
-18.332750 9.578830 -2.331412
-18.332876 9.585400 -2.401361
-18.332130 9.586189 -2.435447
-18.332043 9.586320 -2.433145
-18.332043 9.586621 -2.349184
-18.332279 9.586376 -2.334741
-18.333052 9.588604 -2.425853
-18.333355 9.588395 -2.427451
-18.333586 9.588292 -2.422932
-18.333668 9.588261 -2.421358
-18.333355 9.588758 -2.355517
-18.332653 9.595915 -2.401888
-18.333544 9.614898 -2.374062
-18.333624 9.634587 -2.352612
-18.332890 9.635497 -2.349705
-18.332071 9.636460 -2.346997
-18.333139 9.635218 -2.336616
-18.332644 9.648313 -2.334862
-18.331841 9.410182 -2.402100
-18.331163 9.453805 -2.407890
-18.331171 9.464228 -2.430513
-18.331587 9.474196 -2.391484
-18.331696 9.473347 -2.382612
-18.330753 9.473540 -2.374032
-18.331659 9.472992 -2.371258
-18.330935 9.473523 -2.362524
-18.330954 9.475137 -2.356612
-18.331596 9.484716 -2.403712
-18.331444 9.484880 -2.401327
-18.330645 9.485984 -2.381235
-18.331169 9.502457 -2.369102
-18.330538 9.502873 -2.366247
-18.330227 9.503087 -2.364779
-18.331797 9.505254 -2.370060
-18.331732 9.505333 -2.367815
-18.331720 9.505366 -2.365413
-18.331923 9.514375 -2.445371
-18.330301 9.515506 -2.431703
-18.331564 9.515112 -2.349479
-18.330996 9.516377 -2.432901
-18.331480 9.515865 -2.407045
-18.330490 9.517212 -2.380228
-18.331734 9.515668 -2.378824
-18.330334 9.515860 -2.350845
-18.330444 9.528425 -2.414443
-18.331102 9.528321 -2.395852
-18.331549 9.536181 -2.465212
-18.330824 9.540755 -2.371849
-18.331610 9.546374 -2.454643
-18.330929 9.547215 -2.449584
-18.330313 9.548004 -2.448013
-18.330841 9.547315 -2.446196
-18.331043 9.547083 -2.444085
-18.331064 9.553670 -2.432437
-18.330914 9.554028 -2.405255
-18.331923 9.567450 -2.432167
-18.331905 9.566436 -2.425941
-18.331356 9.567189 -2.411984
-18.330608 9.568101 -2.403587
-18.331133 9.568227 -2.402142
-18.330727 9.568025 -2.390152
-18.331095 9.567592 -2.388201
-18.331341 9.567907 -2.387408
-18.331938 9.567943 -2.344392
-18.330709 9.568254 -2.332700
-18.331573 9.567202 -2.331189
-18.332016 9.567684 -2.331934
-18.331450 9.568077 -2.327716
-18.330767 9.568394 -2.409424
-18.330217 9.568777 -2.404976
-18.330311 9.568651 -2.377151
-18.330667 9.568795 -2.338840
-18.330721 9.568471 -2.334746
-18.331291 9.577304 -2.432852
-18.331057 9.577585 -2.428187
-18.331821 9.579309 -2.342481
-18.330650 9.578408 -2.341452
-18.330809 9.578245 -2.333678
-18.331667 9.579525 -2.329896
-18.330296 9.580339 -2.334139
-18.331059 9.587563 -2.424594
-18.331730 9.586994 -2.355699
-18.330723 9.587965 -2.430970
-18.330790 9.590374 -2.352493
-18.330086 9.604235 -2.358875
-18.330715 9.603820 -2.344719
-18.331577 9.617327 -2.363681
-18.331303 9.637412 -2.344206
-18.330534 9.638363 -2.341407
-18.330097 9.638911 -2.338834
-18.329973 9.401689 -2.441749
-18.328543 9.425152 -2.435050
-18.328344 9.457404 -2.408189
-18.329725 9.466167 -2.398517
-18.328663 9.467418 -2.430990
-18.329475 9.474458 -2.360918
-18.329433 9.474542 -2.353896
-18.328632 9.475186 -2.389787
-18.328543 9.475301 -2.383924
-18.328657 9.474891 -2.369632
-18.328960 9.477480 -2.408004
-18.329449 9.487181 -2.467217
-18.330021 9.486700 -2.404895
-18.328259 9.488812 -2.437799
-18.328951 9.490107 -2.379518
-18.329475 9.489799 -2.376660
-18.329304 9.489946 -2.372384
-18.329515 9.489853 -2.368133
-18.328129 9.490543 -2.388248
-18.328224 9.490641 -2.370859
-18.329773 9.515739 -2.442025
-18.329332 9.516090 -2.394265
-18.329006 9.516730 -2.346422
-18.329073 9.516708 -2.345136
-18.329329 9.528880 -2.445850
-18.329296 9.529264 -2.440103
-18.329842 9.529257 -2.364879
-18.329138 9.529541 -2.420487
-18.328594 9.529600 -2.412869
-18.328962 9.539390 -2.461007
-18.329205 9.541744 -2.373206
-18.328905 9.549718 -2.450444
-18.330072 9.554533 -2.406599
-18.330004 9.558682 -2.434964
-18.328823 9.560253 -2.397037
-18.329792 9.559201 -2.360537
-18.328449 9.560751 -2.387745
-18.328518 9.560773 -2.366294
-18.328382 9.560914 -2.364029
-18.328299 9.561038 -2.361662
-18.329111 9.566264 -2.361538
-18.329039 9.566331 -2.332538
-18.329844 9.568941 -2.435634
-18.329885 9.568974 -2.415437
-18.329279 9.569402 -2.400579
-18.329992 9.568916 -2.391897
-18.329878 9.568839 -2.385795
-18.329859 9.569093 -2.385042
-18.328693 9.569639 -2.378491
-18.329329 9.569814 -2.367817
-18.328173 9.570085 -2.365680
-18.329409 9.569335 -2.364239
-18.328438 9.569975 -2.326086
-18.328512 9.570695 -2.412126
-18.328520 9.570710 -2.399778
-18.329552 9.579425 -2.429290
-18.329538 9.579651 -2.375498
-18.329460 9.579739 -2.370980
-18.329828 9.579305 -2.368954
-18.329414 9.579928 -2.336071
-18.328884 9.581020 -2.354873
-18.329964 9.580486 -2.340917
-18.328548 9.581388 -2.338153
-18.329063 9.580339 -2.338067
-18.329659 9.589517 -2.351915
-18.328587 9.590588 -2.424868
-18.328617 9.590666 -2.397070
-18.329584 9.590901 -2.342699
-18.328159 9.592032 -2.350933
-18.330015 9.599235 -2.380944
-18.328457 9.601079 -2.393247
-18.328688 9.609297 -2.383972
-18.328981 9.620467 -2.359613
-18.329647 9.619665 -2.354495
-18.329361 9.621597 -2.364293
-18.330046 9.629086 -2.363556
-18.328806 9.630621 -2.352669
-18.329176 9.630192 -2.350648
-18.328955 9.640270 -2.335871
-18.326353 9.427960 -2.430969
-18.327873 9.447141 -2.426789
-18.327873 9.463921 -2.439229
-18.328106 9.464009 -2.362556
-18.326824 9.464891 -2.353944
-18.326330 9.470565 -2.385612
-18.326206 9.470695 -2.383218
-18.327255 9.476088 -2.386595
-18.326920 9.476077 -2.357926
-18.326994 9.476050 -2.356496
-18.327921 9.478710 -2.433410
-18.327408 9.479385 -2.430852
-18.327679 9.479050 -2.424093
-18.327629 9.479311 -2.371419
-18.326435 9.480854 -2.368241
-18.327328 9.489985 -2.432505
-18.327772 9.489525 -2.411254
-18.327627 9.489864 -2.362995
-18.327337 9.491097 -2.380872
-18.326899 9.491510 -2.366511
-18.326706 9.500932 -2.465614
-18.327244 9.500538 -2.382987
-18.327673 9.504404 -2.433968
-18.327333 9.517318 -2.395503
-18.328053 9.517365 -2.342252
-18.326473 9.525765 -2.447864
-18.327921 9.530587 -2.450489
-18.327982 9.530766 -2.381437
-18.326746 9.532427 -2.347604
-18.327251 9.541918 -2.351188
-18.327978 9.551195 -2.359435
-18.326614 9.556546 -2.421558
-18.326853 9.556520 -2.409388
-18.327091 9.556300 -2.378518
-18.327549 9.556035 -2.377149
-18.327623 9.556008 -2.375689
-18.327753 9.561512 -2.424267
-18.328018 9.561214 -2.415548
-18.327740 9.561608 -2.400744
-18.326981 9.570746 -2.374047
-18.326546 9.573277 -2.358964
-18.327021 9.582353 -2.371990
-18.326817 9.582987 -2.371280
-18.327616 9.582136 -2.341524
-18.326679 9.583325 -2.331931
-18.328003 9.591287 -2.426776
-18.328079 9.591475 -2.345128
-18.326334 9.593644 -2.341649
-18.326208 9.593772 -2.339305
-18.327480 9.602360 -2.372351
-18.327868 9.621785 -2.363332
-18.327116 9.623012 -2.362801
-18.327856 9.622610 -2.355608
-18.324284 9.462596 -2.407366
-18.324377 9.466482 -2.348182
-18.326077 9.465477 -2.341365
-18.326080 9.470875 -2.380904
-18.324394 9.472980 -2.390984
-18.324230 9.473397 -2.342774
-18.325991 9.481151 -2.434225
-18.325132 9.482320 -2.419827
-18.325232 9.482226 -2.410745
-18.325848 9.481543 -2.374717
-18.326069 9.481283 -2.372475
-18.324951 9.491436 -2.429226
-18.325703 9.492179 -2.375047
-18.324774 9.493461 -2.370199
-18.325323 9.497493 -2.460555
-18.326151 9.501904 -2.384503
-18.325083 9.503236 -2.385922
-18.324289 9.506540 -2.432222
-18.324284 9.506842 -2.359988
-18.324610 9.519083 -2.429735
-18.325714 9.518311 -2.396919
-18.325960 9.522979 -2.355293
-18.325556 9.523495 -2.344944
-18.325434 9.525500 -2.359319
-18.326044 9.531212 -2.409726
-18.324579 9.532146 -2.408178
-18.325775 9.531756 -2.368884
-18.324253 9.535181 -2.444301
-18.325178 9.544178 -2.446840
-18.325136 9.544202 -2.445650
-18.325844 9.543942 -2.363083
-18.325579 9.553933 -2.430856
-18.325081 9.554587 -2.421514
-18.324341 9.555482 -2.418791
-18.324717 9.555090 -2.395315
-18.325312 9.557400 -2.416879
-18.324627 9.557847 -2.415237
-18.325621 9.557268 -2.410840
-18.325443 9.564323 -2.429307
-18.325380 9.564421 -2.426938
-18.325932 9.563758 -2.425126
-18.325727 9.564175 -2.381172
-18.325089 9.565017 -2.366067
-18.324741 9.572168 -2.406066
-18.325407 9.571584 -2.390073
-18.324734 9.572166 -2.372614
-18.324921 9.572152 -2.361063
-18.326097 9.573722 -2.391244
-18.326017 9.573940 -2.363028
-18.324814 9.575273 -2.394817
-18.325556 9.574375 -2.393060
-18.324396 9.575883 -2.378822
-18.324339 9.575948 -2.375335
-18.326107 9.582696 -2.431223
-18.324774 9.583771 -2.370467
-18.325594 9.583248 -2.335158
-18.324625 9.585706 -2.362904
-18.324791 9.585521 -2.360770
-18.325445 9.593417 -2.348000
-18.324896 9.611676 -2.382310
-18.325411 9.611606 -2.356537
-18.325432 9.624769 -2.355926
-18.325441 9.624169 -2.349695
-18.324913 9.625420 -2.353432
-18.324965 9.635261 -2.357693
-18.325169 9.635023 -2.352233
-18.325481 9.652431 -2.436467
-18.324104 9.466596 -2.405907
-18.322323 9.467693 -2.407311
-18.322840 9.467468 -2.397119
-18.323151 9.467212 -2.352282
-18.322598 9.467578 -2.349589
-18.322466 9.467700 -2.345316
-18.323364 9.474026 -2.477306
-18.323603 9.473884 -2.422564
-18.323477 9.474186 -2.391512
-18.324171 9.473306 -2.386281
-18.322336 9.475736 -2.349495
-18.323383 9.478219 -2.417413
-18.323820 9.484208 -2.349132
-18.323320 9.484436 -2.471981
-18.322828 9.493660 -2.458426
-18.323185 9.495126 -2.464681
-18.322912 9.495620 -2.427943
-18.323832 9.494651 -2.364821
-18.324013 9.494439 -2.362750
-18.322371 9.507878 -2.416796
-18.324020 9.514707 -2.460733
-18.323458 9.515469 -2.446875
-18.322433 9.516710 -2.457380
-18.322723 9.516377 -2.448534
-18.323032 9.520205 -2.373375
-18.323780 9.519816 -2.366197
-18.323959 9.525164 -2.441039
-18.322868 9.523904 -2.437605
-18.324144 9.524953 -2.439033
-18.323326 9.525953 -2.436080
-18.322666 9.526898 -2.402794
-18.322289 9.527588 -2.344719
-18.322355 9.533736 -2.424647
-18.323381 9.536242 -2.462770
-18.323963 9.535585 -2.439639
-18.323694 9.536213 -2.361258
-18.322695 9.537167 -2.445319
-18.322609 9.537483 -2.375197
-18.322828 9.537272 -2.358349
-18.323174 9.546679 -2.441988
-18.323437 9.546486 -2.395900
-18.322506 9.545905 -2.375732
-18.322315 9.547764 -2.434594
-18.322889 9.547068 -2.432698
-18.322277 9.548122 -2.349946
-18.323874 9.552358 -2.346300
-18.323442 9.556611 -2.422581
-18.322725 9.557486 -2.424230
-18.323107 9.557131 -2.385163
-18.322479 9.557947 -2.376854
-18.323538 9.558577 -2.372633
-18.322767 9.557675 -2.357844
-18.322475 9.559148 -2.419691
-18.322788 9.559014 -2.413586
-18.323656 9.566696 -2.390845
-18.323717 9.572820 -2.369657
-18.322639 9.573513 -2.368070
-18.323893 9.576479 -2.376094
-18.323345 9.577223 -2.358901
-18.322924 9.587872 -2.344883
-18.322763 9.588059 -2.350236
-18.323973 9.594354 -2.346513
-18.323725 9.594528 -2.343635
-18.324148 9.596329 -2.335548
-18.322718 9.613050 -2.379246
-18.323566 9.612544 -2.377880
-18.323475 9.625314 -2.358160
-18.322424 9.626063 -2.348155
-18.323599 9.636917 -2.354355
-18.323662 9.636836 -2.353335
-18.321056 9.468565 -2.398524
-18.321964 9.468036 -2.394054
-18.321854 9.468103 -2.343934
-18.322035 9.475743 -2.459004
-18.322062 9.475771 -2.452259
-18.320700 9.477730 -2.386045
-18.322062 9.494200 -2.450796
-18.321762 9.494407 -2.449151
-18.321104 9.497804 -2.455037
-18.320923 9.498329 -2.364967
-18.321875 9.507072 -2.444900
-18.321718 9.507283 -2.437998
-18.321379 9.507733 -2.435454
-18.321379 9.507755 -2.433248
-18.320890 9.508275 -2.460036
-18.320908 9.508273 -2.457789
-18.320665 9.508981 -2.453365
-18.320581 9.509015 -2.454960
-18.321978 9.508181 -2.450334
-18.321287 9.508632 -2.448764
-18.320639 9.508660 -2.441693
-18.320675 9.508701 -2.442415
-18.321136 9.508432 -2.440997
-18.321289 9.508357 -2.437965
-18.320488 9.508871 -2.439257
-18.320599 9.508808 -2.436395
-18.320894 9.508742 -2.423018
-18.320978 9.508709 -2.421424
-18.321165 9.508907 -2.387107
-18.321411 9.517983 -2.459996
-18.321114 9.518424 -2.440503
-18.321663 9.517752 -2.438673
-18.321291 9.521176 -2.426545
-18.321802 9.523625 -2.348949
-18.320738 9.534588 -2.441080
-18.321865 9.538117 -2.459298
-18.321051 9.539160 -2.456391
-18.320610 9.540108 -2.345532
-18.320547 9.549905 -2.445554
-18.320602 9.549867 -2.437712
-18.320593 9.549979 -2.410741
-18.321157 9.549359 -2.391969
-18.320345 9.554418 -2.378913
-18.321436 9.559074 -2.425591
-18.320784 9.559940 -2.413834
-18.320747 9.560155 -2.389897
-18.321896 9.568800 -2.408587
-18.320906 9.570110 -2.384309
-18.320515 9.570539 -2.405402
-18.321388 9.579634 -2.364160
-18.321690 9.589325 -2.356250
-18.320332 9.591022 -2.352978
-18.320480 9.590872 -2.345308
-18.321028 9.597899 -2.343567
-18.320976 9.600229 -2.328763
-18.320354 9.610996 -2.384856
-18.321669 9.613808 -2.369335
-18.322239 9.626062 -2.359588
-18.322144 9.626179 -2.353743
-18.322220 9.626151 -2.352242
-18.318678 9.437881 -2.424035
-18.320049 9.457213 -2.416197
-18.320208 9.467809 -2.406599
-18.320156 9.469089 -2.402819
-18.319292 9.479370 -2.416967
-18.320002 9.480355 -2.415681
-18.319439 9.479458 -2.341611
-18.319975 9.488676 -2.466093
-18.318880 9.490145 -2.452709
-18.319561 9.489333 -2.431672
-18.320017 9.489015 -2.361218
-18.319077 9.490207 -2.357080
-18.319588 9.489575 -2.355282
-18.319468 9.489748 -2.352741
-18.320309 9.488647 -2.351173
-18.319696 9.495955 -2.421721
-18.319214 9.496101 -2.389050
-18.319092 9.501498 -2.393875
-18.319302 9.510282 -2.454286
-18.318968 9.510726 -2.451743
-18.318451 9.511401 -2.449073
-18.319206 9.509777 -2.425875
-18.320196 9.519588 -2.442031
-18.319725 9.520194 -2.434891
-18.319792 9.520177 -2.417971
-18.319826 9.522111 -2.425006
-18.319080 9.522732 -2.367418
-18.318579 9.536114 -2.422947
-18.318913 9.536062 -2.367080
-18.319344 9.541602 -2.370485
-18.318958 9.542096 -2.364500
-18.319820 9.547721 -2.359677
-18.318966 9.551938 -2.434243
-18.318972 9.552028 -2.407188
-18.318996 9.552030 -2.399331
-18.318575 9.552529 -2.396804
-18.319748 9.551083 -2.395435
-18.318981 9.552114 -2.382439
-18.318399 9.552822 -2.383099
-18.319759 9.560730 -2.394227
-18.319807 9.561301 -2.372562
-18.319702 9.571585 -2.385735
-18.318384 9.575939 -2.391143
-18.319592 9.575493 -2.359361
-18.319567 9.581833 -2.369600
-18.319935 9.586884 -2.358627
-18.320198 9.591200 -2.346253
-18.319138 9.592518 -2.349941
-18.320080 9.611365 -2.375832
-18.319839 9.614883 -2.374807
-18.319275 9.615276 -2.370604
-18.319532 9.615241 -2.357676
-18.319860 9.627675 -2.345089
-18.318445 9.628574 -2.342330
-18.318224 9.455221 -2.397604
-18.317320 9.460718 -2.421105
-18.316462 9.461868 -2.405525
-18.317390 9.470508 -2.437110
-18.317816 9.470497 -2.408539
-18.318192 9.470339 -2.401173
-18.316463 9.472563 -2.414186
-18.317360 9.471433 -2.412445
-18.317339 9.481699 -2.466838
-18.316612 9.482205 -2.444235
-18.316692 9.482174 -2.442727
-18.317348 9.482142 -2.343540
-18.317533 9.481875 -2.341397
-18.317842 9.491760 -2.358467
-18.316465 9.497741 -2.447176
-18.318247 9.501409 -2.450712
-18.316925 9.503152 -2.431448
-18.317022 9.503081 -2.421309
-18.318293 9.510524 -2.446966
-18.317511 9.510660 -2.443808
-18.318293 9.511594 -2.444394
-18.318275 9.510319 -2.428863
-18.317587 9.510770 -2.427293
-18.318052 9.510558 -2.418116
-18.318209 9.510500 -2.415153
-18.317524 9.512798 -2.382620
-18.317039 9.523487 -2.458868
-18.316620 9.524117 -2.430306
-18.317719 9.523545 -2.371518
-18.317408 9.523759 -2.370056
-18.318302 9.532131 -2.469614
-18.317007 9.533938 -2.417771
-18.317221 9.533748 -2.394211
-18.317093 9.536861 -2.403349
-18.317928 9.536636 -2.371279
-18.318317 9.542881 -2.365242
-18.317560 9.543702 -2.399752
-18.317961 9.543245 -2.385375
-18.318110 9.543122 -2.367403
-18.317392 9.544082 -2.361188
-18.317417 9.549060 -2.376867
-18.316422 9.549863 -2.358078
-18.318235 9.552986 -2.387538
-18.316845 9.554701 -2.400125
-18.317760 9.561957 -2.395630
-18.317682 9.562289 -2.366537
-18.316690 9.562958 -2.397015
-18.316679 9.565073 -2.404034
-18.317232 9.574590 -2.400660
-18.317007 9.574988 -2.372437
-18.317171 9.574792 -2.362521
-18.316582 9.585553 -2.365167
-18.317116 9.584862 -2.363277
-18.317572 9.588276 -2.367199
-18.318033 9.588009 -2.365781
-18.317150 9.588307 -2.357149
-18.316795 9.595276 -2.378436
-18.318209 9.603449 -2.382711
-18.317141 9.604724 -2.386258
-18.318012 9.603670 -2.384681
-18.317801 9.604119 -2.328826
-18.317043 9.615031 -2.380276
-18.316820 9.616781 -2.373195
-18.317558 9.616385 -2.366151
-18.316589 9.629747 -2.340785
-18.317991 9.633406 -2.364035
-18.315636 9.441898 -2.392897
-18.315790 9.452008 -2.428314
-18.314785 9.453356 -2.412691
-18.314774 9.463954 -2.423747
-18.315620 9.471791 -2.366294
-18.314856 9.474602 -2.426567
-18.316013 9.473086 -2.425204
-18.315420 9.483440 -2.391848
-18.315226 9.484447 -2.460659
-18.315063 9.484760 -2.427525
-18.315901 9.493928 -2.452765
-18.315962 9.493841 -2.448224
-18.314787 9.495359 -2.445062
-18.315845 9.498148 -2.444159
-18.314619 9.498975 -2.438021
-18.314802 9.505810 -2.434427
-18.315695 9.504696 -2.432814
-18.314474 9.506225 -2.445372
-18.315722 9.512153 -2.403123
-18.316269 9.514137 -2.445280
-18.315767 9.525217 -2.417252
-18.316324 9.524157 -2.399289
-18.314518 9.525448 -2.423065
-18.316025 9.535044 -2.452058
-18.315481 9.535953 -2.387267
-18.314859 9.536925 -2.341585
-18.316250 9.537368 -2.404663
-18.316143 9.545331 -2.445892
-18.315334 9.546651 -2.350688
-18.315378 9.546636 -2.346161
-18.315222 9.546853 -2.343787
-18.314487 9.547733 -2.347787
-18.316402 9.555214 -2.404178
-18.315945 9.555875 -2.383648
-18.316050 9.555754 -2.378037
-18.314859 9.557010 -2.447880
-18.316303 9.556797 -2.411309
-18.314884 9.558618 -2.422028
-18.314528 9.564013 -2.390963
-18.315304 9.563752 -2.367851
-18.315521 9.563657 -2.363472
-18.315603 9.566395 -2.405427
-18.316011 9.565994 -2.374309
-18.315203 9.566964 -2.377033
-18.314934 9.567320 -2.375742
-18.315731 9.576471 -2.393903
-18.315228 9.577887 -2.392307
-18.315151 9.578226 -2.396779
-18.315466 9.589628 -2.362808
-18.314768 9.590082 -2.361316
-18.315899 9.595175 -2.358948
-18.314537 9.598045 -2.378979
-18.314552 9.607924 -2.377633
-18.315851 9.616514 -2.377194
-18.314680 9.617972 -2.374037
-18.315451 9.617738 -2.361762
-18.315142 9.617951 -2.360234
-18.316339 9.629922 -2.337943
-18.314190 9.432862 -2.441841
-18.312712 9.434747 -2.451118
-18.312620 9.434942 -2.422268
-18.312569 9.435030 -2.421082
-18.313820 9.454536 -2.429051
-18.314264 9.454006 -2.414490
-18.313322 9.458405 -2.437667
-18.314428 9.464421 -2.421122
-18.313128 9.466033 -2.427108
-18.312788 9.466491 -2.424464
-18.314388 9.472524 -2.370480
-18.313568 9.473018 -2.373261
-18.313791 9.475849 -2.454338
-18.313601 9.476085 -2.449605
-18.313995 9.475698 -2.421393
-18.312593 9.477566 -2.403204
-18.313316 9.484307 -2.440915
-18.313618 9.484314 -2.419919
-18.313301 9.484375 -2.433586
